ply
format ascii 1.0
comment Created by Open3D
element vertex 1740
property double x
property double y
property double z
end_header
-4.66925 18.0011 -1.35564
-6.42497 24.9157 -1.25143
-8.8877 34.6476 -0.879804
-11.0544 43.243 -0.0466062
-11.0426 43.232 0.996905
-11.0097 43.17 2.04622
-10.9656 43.0636 3.08357
-10.9328 43.0016 4.12322
-10.9132 42.9595 5.17471
-10.8749 42.8753 6.21549
-10.8466 42.8306 7.26551
-10.8195 42.7586 8.32431
-0.135048 0.207676 -0.354901
-0.131618 0.194849 -0.329932
-0.146856 0.256394 -0.347227
-0.163168 0.32257 -0.363402
-0.187954 0.423157 -0.392949
0.00111115 -0.336191 -0.0220153
-0.433329 1.41322 -0.776129
-1.01509 3.76225 -1.67353
-1.0819 4.0356 -1.66415
-1.15376 4.33302 -1.65022
-1.23729 4.67863 -1.63696
-1.32866 5.05349 -1.61717
-1.43793 5.50555 -1.60056
-1.56425 6.02371 -1.57776
-1.70776 6.61803 -1.54831
-1.89021 7.37274 -1.52206
-2.15552 8.29847 -1.48923
-2.44437 9.46323 -1.44713
-2.86451 11.1649 -1.41261
-3.46768 13.6077 -1.37054
-4.55096 17.9777 -1.35206
-6.31009 25.0953 -1.25843
-8.67221 34.6691 -0.879208
-10.7874 43.2423 -0.046773
-10.7478 43.1516 0.993296
-10.7182 43.1012 2.03966
-10.6935 43.0374 3.07701
-10.6659 42.9947 4.11637
-10.6357 42.941 5.16456
-10.6107 42.876 6.20642
-10.5776 42.8104 7.25141
-10.5491 42.7633 8.31266
-0.130279 0.202086 -0.350799
-0.128958 0.197588 -0.330897
-0.14266 0.254237 -0.345323
-0.15811 0.318746 -0.360682
-0.183149 0.422915 -0.392068
0.00109903 -0.335783 -0.0219893
-0.422829 1.41439 -0.775335
-0.992313 3.77197 -1.67499
-1.05599 4.04233 -1.66414
-1.12725 4.34178 -1.65086
-1.20791 4.68414 -1.63637
-1.29625 5.05981 -1.61662
-1.40199 5.50476 -1.59803
-1.52554 6.02951 -1.57685
-1.67328 6.65696 -1.55458
-1.8458 7.38992 -1.5232
-2.10335 8.30148 -1.48763
-2.38336 9.46642 -1.44548
-2.79116 11.1527 -1.40915
-3.37837 13.591 -1.36704
-4.43141 17.9602 -1.3489
-6.19215 25.2501 -1.26428
-8.44407 34.61 -0.876701
-10.514 43.2456 -0.0469469
-10.4807 43.1452 0.991511
-10.4538 43.1044 2.0367
-10.4201 43.0346 3.0721
-10.3933 42.9937 4.11007
-10.37 42.9344 5.15627
-10.3365 42.8655 6.19568
-10.3067 42.8114 7.24087
-10.2833 42.7511 8.29843
-0.128304 0.208328 -0.353836
-0.126984 0.203823 -0.333816
-0.141157 0.264071 -0.35
-0.153793 0.318378 -0.359759
-0.176266 0.41382 -0.386905
0.00108691 -0.335375 -0.021963
-0.412851 1.41897 -0.776096
-0.96825 3.77627 -1.67426
-1.03158 4.05236 -1.66551
-1.10073 4.35041 -1.65151
-1.17895 4.6914 -1.63637
-1.26383 5.06203 -1.61496
-1.37097 5.52442 -1.60108
-1.4871 6.03108 -1.575
-1.63424 6.6666 -1.55458
-1.80079 7.39283 -1.52173
-2.05026 8.30653 -1.48635
-2.3214 9.45724 -1.44216
-2.71879 11.1519 -1.40709
-3.28829 13.5802 -1.3641
-4.31767 17.9508 -1.34644
-6.02276 25.2128 -1.26082
-8.24587 34.6721 -0.877191
-10.2449 43.2299 -0.0471036
-10.2056 43.1349 0.989623
-10.1875 43.0962 2.03328
-10.1546 43.0282 3.06719
-10.1365 42.9895 4.10397
-10.1066 42.9338 5.1489
-10.0736 42.865 6.18689
-10.0449 42.7804 7.22582
-10.0212 42.7508 8.28679
-0.12212 0.196039 -0.345644
-0.124382 0.206669 -0.334772
-0.134262 0.249786 -0.341517
-0.150964 0.323061 -0.361536
-0.172363 0.416943 -0.387743
0.00113259 -0.335074 -0.0219433
-0.403101 1.42172 -0.776075
-0.942409 3.77304 -1.67061
-1.00492 4.0493 -1.66208
-1.07287 4.3534 -1.65022
-1.15043 4.70041 -1.63697
-1.23497 5.07503 -1.61662
-1.33458 5.5212 -1.59804
-1.45282 6.04532 -1.5764
-1.59383 6.67628 -1.5546
-1.74582 7.35748 -1.51283
-1.9935 8.28175 -1.48018
-2.26439 9.46078 -1.44078
-2.64922 11.1441 -1.40433
-3.20472 13.5736 -1.36171
-4.20831 17.9441 -1.34425
-5.85622 25.1432 -1.25592
-8.04451 34.7214 -0.877391
-8.62685 37.2925 -0.0438085
-8.56298 37.0775 0.847366
-9.92289 43.0923 2.03014
-6.59522 28.5563 2.03343
-6.5858 28.5647 2.72644
-9.84348 42.9317 5.14154
-9.8155 42.8476 6.17616
-9.78379 42.782 7.21625
-9.75985 42.7507 8.27552
-0.120194 0.202116 -0.348688
-0.121248 0.2078 -0.334747
-0.132809 0.259455 -0.346201
-0.147974 0.327831 -0.36331
-0.168832 0.421861 -0.389434
-0.211888 0.615329 -0.456055
-0.392966 1.4244 -0.77606
-0.919138 3.78061 -1.67134
-0.980126 4.06111 -1.66414
-1.04586 4.35989 -1.65022
-1.12092 4.70543 -1.63637
-1.20405 5.08831 -1.61828
-1.30128 5.53112 -1.59855
-1.41322 6.04668 -1.57455
-1.55049 6.67842 -1.55294
-1.70096 7.37197 -1.51358
-1.93902 8.27228 -1.47662
-2.20362 9.46287 -1.43913
-2.57873 11.1403 -1.40202
-3.11716 13.5592 -1.35858
-4.08623 17.9087 -1.33996
-5.70234 25.1457 -1.25452
-7.84728 34.789 -0.878066
-8.39595 37.3102 -0.0439638
-9.68427 43.1258 0.986385
-9.65781 43.0828 2.02681
-6.43092 28.6284 2.03565
-6.41209 28.594 2.72539
0.00112047 -0.334665 -0.0219172
0.00112047 -0.334665 -0.0219172
0.00112047 -0.334665 -0.0219172
-9.49714 42.7413 8.26277
-0.118842 0.211615 -0.353771
-0.116895 0.203721 -0.331788
-0.12924 0.260681 -0.346176
-0.143227 0.325559 -0.361494
-0.161999 0.4126 -0.384276
-0.213451 0.649093 -0.470694
-0.382877 1.42891 -0.776815
-0.894302 3.78464 -1.6706
-0.955169 4.06889 -1.66482
-1.01754 4.36455 -1.64958
-1.09022 4.70871 -1.63518
-1.17075 5.08609 -1.61552
-1.2672 5.54286 -1.59958
-1.37606 6.0532 -1.5741
-1.5105 6.68957 -1.55336
-1.6656 7.42426 -1.52177
-1.89047 8.29562 -1.47859
-2.14332 9.4584 -1.43664
-2.50589 11.1344 -1.3995
-3.02736 13.5447 -1.35545
-3.97593 17.9089 -1.33835
-5.50903 24.9863 -1.24528
0.00110835 -0.334257 -0.021891
0.00110835 -0.334257 -0.021891
-6.36335 29.0446 0.65867
0.00110835 -0.334257 -0.021891
0.00110835 -0.334257 -0.021891
0.00110835 -0.334257 -0.021891
-9.31139 42.9263 5.12704
-9.28238 42.8325 6.15747
-9.25323 42.7748 7.19582
-9.22651 42.7282 8.24928
-0.115394 0.211049 -0.352725
-0.114182 0.206488 -0.332746
-0.126258 0.263591 -0.347091
-0.139811 0.328561 -0.362368
-0.161811 0.433391 -0.393677
-0.210209 0.663256 -0.476375
-0.371134 1.42422 -0.773713
-0.872089 3.79733 -1.67351
-0.928645 4.07314 -1.66413
-0.991277 4.37446 -1.65086
-1.05958 4.70785 -1.63279
-1.13776 5.08963 -1.61442
-1.23253 5.54675 -1.59856
-1.33888 6.06536 -1.57504
-1.46795 6.69493 -1.55254
-1.61952 7.43436 -1.52179
-1.8473 8.33764 -1.48382
-2.0827 9.45971 -1.43499
-2.4369 11.1355 -1.39789
-2.94452 13.5487 -1.35418
-3.8572 17.8838 -1.3349
-5.33201 24.8715 -1.23831
-6.20676 29.0593 -0.736811
-7.80207 36.6805 -0.0438726
-9.14979 43.1156 0.983183
0.00109623 -0.333848 -0.0218649
-9.09238 43.0021 3.04856
-9.06582 42.9552 4.07843
-9.04703 42.9077 5.1183
-9.01349 42.8271 6.14868
-8.98477 42.7694 7.18561
-8.96353 42.7099 8.23543
-0.112461 0.213799 -0.353724
-0.110568 0.205876 -0.331741
-0.123371 0.268171 -0.348949
-0.135858 0.329717 -0.36235
-0.156683 0.43119 -0.391941
0.00108411 -0.33344 -0.0218387
-0.360349 1.42498 -0.772925
-0.847521 3.79909 -1.67205
-0.902817 4.07687 -1.66344
-0.964463 4.38228 -1.6515
-1.032 4.72173 -1.63518
-1.10688 5.09838 -1.61497
-1.19748 5.54847 -1.59704
-1.30236 6.07534 -1.5755
-1.42985 6.70914 -1.5538
-1.57414 7.43411 -1.51994
-1.79416 8.34105 -1.48254
-2.02423 9.46223 -1.43362
-2.36517 11.1326 -1.39583
-2.85638 13.539 -1.35162
-3.74258 17.8592 -1.33159
-5.21771 25.0753 -1.24672
-7.2611 35.059 -0.881858
-8.91739 43.2126 -0.0479155
-8.87857 43.1049 0.981489
0.00108411 -0.33344 -0.0218387
-8.83268 43.0053 3.04491
-8.81393 42.9567 4.07363
-8.78592 42.901 5.11117
-8.75413 42.8263 6.14101
-8.73217 42.7614 7.17573
-8.70846 42.7266 8.2286
-0.108382 0.209703 -0.350642
-0.106967 0.203531 -0.329754
-0.117906 0.258838 -0.343288
-0.131438 0.327407 -0.360528
-0.150972 0.425314 -0.388495
0.00107199 -0.333031 -0.0218127
-0.351225 1.43096 -0.774454
-0.823332 3.79866 -1.66986
-0.877106 4.07671 -1.66138
-0.937389 4.38428 -1.65022
-1.00302 4.72408 -1.63398
-1.07654 5.10486 -1.61497
-1.16572 5.56108 -1.59857
-1.26577 6.07902 -1.57459
-1.39012 6.71552 -1.55339
-1.53147 7.447 -1.5207
-1.73714 8.30886 -1.47539
-1.96439 9.44857 -1.43
-2.29598 11.1207 -1.39283
-2.77497 13.5356 -1.34979
-3.62956 17.8235 -1.32757
-5.06274 25.0397 -1.24371
-7.09608 35.264 -0.886007
-8.65997 43.1916 -0.048054
-8.62453 43.0974 0.979997
-8.60747 43.0563 2.01481
-8.578 42.9916 3.04029
-8.56117 42.951 4.06828
-8.53469 42.9011 5.10521
-8.50642 42.842 6.13612
-8.49473 42.8273 7.17846
-8.47538 42.8135 8.2358
-0.106551 0.217456 -0.354705
-0.104823 0.20958 -0.332678
-0.114181 0.258149 -0.342328
-0.12696 0.324991 -0.358712
-0.148227 0.435514 -0.392755
0.00105987 -0.332623 -0.0217866
-0.34039 1.42976 -0.772892
-0.799865 3.80934 -1.67204
-0.850887 4.08222 -1.66138
-0.907929 4.38278 -1.64764
-0.973702 4.73411 -1.63518
-1.04386 5.10965 -1.61442
-1.12924 5.56075 -1.59654
-1.22733 6.08497 -1.57413
-1.34701 6.7243 -1.5534
-1.48358 7.45472 -1.52034
-1.69411 8.3539 -1.48127
-1.8968 9.4118 -1.42304
-2.22728 11.1205 -1.39123
-2.68898 13.5206 -1.34684
-3.51487 17.8099 -1.3251
-4.90098 24.9884 -1.23994
-6.30058 32.2827 -0.812836
-6.23538 32.0096 -0.0414279
-8.41915 43.3804 0.985189
-8.40191 43.3778 2.02731
-8.38997 43.4028 3.06555
-8.38275 43.4529 4.11054
-8.37499 43.4588 5.16511
-8.3518 43.4252 6.21186
-8.33843 43.443 7.27227
-8.33018 43.4466 8.34708
-0.103305 0.218508 -0.35468
-0.101577 0.210632 -0.332653
-0.111608 0.264421 -0.345125
-0.125702 0.340255 -0.365873
-0.140393 0.418953 -0.384168
0.00115931 -0.332293 -0.0217645
-0.330612 1.43581 -0.774417
-0.775601 3.81237 -1.67131
-0.826121 4.0912 -1.66274
-0.881802 4.39391 -1.64957
-0.943791 4.73626 -1.63398
-1.01253 5.11597 -1.61442
-1.0953 5.5675 -1.59655
-1.19068 6.09419 -1.5746
-1.30612 6.72442 -1.55174
-1.44074 7.46714 -1.52109
-1.64438 8.37398 -1.48291
-1.84246 9.43268 -1.42446
-2.15672 11.1202 -1.38963
-2.60073 13.5053 -1.34389
-3.40517 17.8027 -1.3232
-4.73034 24.9095 -1.23485
-6.67487 35.3218 -0.885736
-6.02587 31.9215 -0.0414858
-6.0256 31.9862 0.721729
-8.25975 44.0152 2.05471
-8.24985 44.053 3.10782
-8.25149 44.1103 4.16795
-8.2334 44.1045 5.23564
-8.21344 44.0885 6.29925
-8.20282 44.0795 7.3703
-8.1888 44.0956 8.46169
-0.100847 0.222867 -0.3567
-0.0970314 0.203069 -0.327724
-0.108568 0.267223 -0.346041
-0.121278 0.337809 -0.364055
-0.141935 0.452219 -0.399564
0.00114719 -0.331885 -0.0217384
-0.320092 1.43629 -0.773627
-0.75139 3.81536 -1.67058
-0.79926 4.08884 -1.66
-0.854046 4.40126 -1.65021
-0.913003 4.73833 -1.63279
-0.98038 5.11822 -1.61332
-1.0606 5.57622 -1.59706
-1.15217 6.09963 -1.57415
-1.26473 6.74225 -1.55384
-1.39169 7.46048 -1.51813
-1.59539 8.38146 -1.48261
-1.79159 9.47282 -1.42868
-2.09088 11.1227 -1.3885
-2.51912 13.4965 -1.34169
-3.29135 17.7715 -1.3196
-4.57521 24.8837 -1.2324
-6.44727 35.2381 -0.882935
-5.85809 32.0564 -0.0416805
-8.13152 44.7183 1.01333
-8.10939 44.691 2.08385
-8.10709 44.7286 3.15189
-8.09914 44.7802 4.22625
-8.02843 44.4815 5.27426
-7.99153 44.3709 6.33231
-7.96476 44.2715 7.394
-7.93806 44.2173 8.47551
-0.0962356 0.217054 -0.352595
-0.0946149 0.209126 -0.330648
-0.105569 0.271725 -0.347899
-0.117213 0.338886 -0.364037
-0.134155 0.435628 -0.390976
0.00113507 -0.331476 -0.0217122
-0.308284 1.43122 -0.770527
-0.726095 3.81654 -1.66911
-0.775009 4.10506 -1.66411
-0.826461 4.40469 -1.64956
-0.884752 4.74962 -1.63458
-0.948008 5.12441 -1.61332
-1.02654 5.58262 -1.59706
-1.11545 6.10846 -1.57461
-1.2242 6.74387 -1.5526
-1.34741 7.47256 -1.51889
-1.5421 8.39141 -1.48263
-1.73123 9.4719 -1.42703
-2.01982 11.1298 -1.38783
-2.4301 13.4865 -1.3393
-3.1721 17.7242 -1.31488
-4.45688 25.0898 -1.24109
-6.22365 35.2053 -0.881369
-7.98773 45.3756 -0.0500553
-7.97532 45.4043 1.02778
-7.95892 45.3632 2.11289
-7.90682 45.1636 3.17893
-7.95232 45.478 4.28734
-7.73691 44.3355 5.25142
-7.70761 44.2643 6.3105
-7.68658 44.1946 7.37346
-7.6603 44.1407 8.45207
-0.0943508 0.224836 -0.356653
-0.0915838 0.210062 -0.330624
-0.100745 0.264046 -0.343174
-0.11316 0.338236 -0.363112
-0.13182 0.44918 -0.396957
0.00112295 -0.331068 -0.0216861
-0.298725 1.43516 -0.771279
-0.702835 3.82471 -1.67056
-0.748954 4.10227 -1.66136
-0.799458 4.41163 -1.6502
-0.855145 4.75304 -1.63399
-0.917856 5.13193 -1.61387
-0.992152 5.58695 -1.59656
-1.07916 6.11312 -1.57415
-1.18372 6.75306 -1.55303
-1.30308 7.48454 -1.51964
-1.49233 8.39442 -1.48167
-1.67242 9.45839 -1.42369
-1.95478 11.1354 -1.38716
-2.34955 13.4806 -1.33747
-3.06319 17.6949 -1.31156
-4.30446 25.0537 -1.23825
-5.69118 33.3049 -0.834724
-5.68224 33.292 -0.0426731
-7.82909 46.0972 1.04246
-7.80637 46.0668 2.1434
-7.80574 46.1184 3.24277
0.00112295 -0.331068 -0.0216861
-7.46182 44.2739 5.23875
-7.44276 44.2134 6.29702
-7.41442 44.145 7.35776
-7.38696 44.0818 8.43232
-0.0903256 0.220711 -0.353564
-0.0893326 0.216168 -0.333542
-0.0984285 0.271903 -0.346916
-0.108997 0.337508 -0.362191
-0.126742 0.446814 -0.395218
0.00111083 -0.330659 -0.0216601
-0.289154 1.44082 -0.772811
-0.678555 3.82719 -1.66983
-0.722284 4.1052 -1.66067
-0.771483 4.41274 -1.64892
-0.825538 4.75645 -1.63339
-0.884444 5.13192 -1.61222
-0.958028 5.59297 -1.59656
-1.04085 6.11973 -1.57416
-1.14166 6.76044 -1.55303
-1.25568 7.48667 -1.51854
-1.44174 8.40137 -1.48136
-1.61881 9.49596 -1.42763
-1.88416 11.1195 -1.38392
-2.26539 13.4668 -1.3349
-2.94707 17.658 -1.30769
-4.14914 25.0232 -1.23571
-5.82285 35.3307 -0.882993
-7.68091 46.8175 -0.0512986
-7.7337 47.1998 1.06648
-7.70958 47.1626 2.19221
-7.64 46.8439 3.29027
0.00111083 -0.330659 -0.0216601
0.00111083 -0.330659 -0.0216601
-7.59955 46.8736 6.6676
-7.57204 46.8138 7.79267
-7.58133 46.9305 8.96583
-0.086762 0.21993 -0.352521
-0.0853026 0.211915 -0.330578
-0.0948517 0.272856 -0.346895
-0.105618 0.342071 -0.363967
-0.114488 0.399696 -0.372067
-0.117007 0.416576 -0.35889
-0.277507 1.43567 -0.769703
-0.653887 3.83159 -1.66982
-0.697276 4.11334 -1.66204
-0.742424 4.41203 -1.64699
-0.79473 4.75783 -1.63219
-0.854162 5.14489 -1.61443
-0.923458 5.60276 -1.59758
-1.00373 6.12611 -1.57416
-1.10046 6.76524 -1.55263
-1.21182 7.50191 -1.52004
-1.39076 8.41597 -1.48235
-1.56376 9.51528 -1.42905
-1.80966 11.0896 -1.37906
-2.17882 13.4509 -1.33213
-2.83688 17.6337 -1.30479
-4.00604 25.0951 -1.23808
-5.64371 35.5724 -0.888149
-6.43347 40.6476 -0.0475624
-7.50655 47.5968 1.07431
-7.48437 47.5711 2.20891
-7.47924 47.5992 3.33999
-7.46925 47.6516 4.47811
-7.44854 47.6355 5.62401
-7.43806 47.6295 6.76827
-7.42112 47.6372 7.92167
-7.40473 47.6491 9.09369
-0.0833059 0.219091 -0.351479
-0.0826799 0.216219 -0.332518
-0.0913865 0.273887 -0.346867
-0.10119 0.339489 -0.36215
0.00114439 -0.32995 -0.0216141
-0.111034 0.406867 -0.353976
-0.267825 1.44125 -0.771232
-0.628748 3.82829 -1.6669
-0.671412 4.11584 -1.66135
-0.715675 4.4204 -1.64827
-0.765973 4.76659 -1.63338
-0.822639 5.1502 -1.61443
-0.88808 5.60073 -1.59555
-0.965842 6.12827 -1.57325
-1.05899 6.76809 -1.5518
-1.16583 7.50329 -1.51894
-1.33917 8.41646 -1.48106
-1.50881 9.53622 -1.43075
-1.74382 11.1002 -1.37909
-2.09638 13.444 -1.3303
-2.72645 17.6048 -1.30161
-3.86397 25.1478 -1.23958
-5.53135 36.2294 -0.903361
-7.35242 48.3276 -0.0525979
-7.3391 48.3613 1.09059
-7.31501 48.3231 2.24171
-7.26349 48.0444 3.36799
-7.30014 48.4112 4.54508
-7.28076 48.4049 5.7093
-7.2652 48.3655 6.86616
-7.25485 48.4195 8.04389
-7.2351 48.4109 9.23004
-0.0808846 0.225019 -0.354523
-0.0792774 0.215354 -0.331515
-0.0884378 0.278223 -0.348729
-0.0965545 0.335159 -0.359432
-0.103454 0.383885 -0.363455
-0.103899 0.387962 -0.344997
-0.104114 0.391608 -0.326533
-0.606369 3.84324 -1.67127
-0.646288 4.12376 -1.66272
-0.688279 4.42488 -1.64827
-0.73683 4.77315 -1.63398
-0.789654 5.14572 -1.61167
-0.853343 5.6023 -1.59454
-0.928655 6.13414 -1.57325
-1.01886 6.7802 -1.55306
-1.11929 7.50062 -1.51709
-1.28878 8.42444 -1.48108
-1.45047 9.53535 -1.42937
-1.68542 11.1616 -1.38518
-2.01557 13.4463 -1.32941
-2.61759 17.583 -1.299
-3.72095 25.1958 -1.24091
-5.40086 36.813 -0.916814
-7.17922 49.1078 -0.05327
-7.16859 49.1631 1.10773
-7.14691 49.1419 2.27762
-7.1411 49.17 3.44368
-7.12793 49.2078 4.61555
-7.08889 49.0659 5.78187
-7.09137 49.152 6.97125
-7.07783 49.1877 8.16383
-7.06194 49.2073 9.37303
-0.0770207 0.220807 -0.351434
-0.0756149 0.212765 -0.329529
-0.0853815 0.282617 -0.350587
-0.0909808 0.323763 -0.353118
-0.0968106 0.366959 -0.354866
-0.0974567 0.372668 -0.337643
-0.0997262 0.390731 -0.325741
-0.581599 3.84159 -1.66908
-0.620894 4.1297 -1.6634
-0.660874 4.42908 -1.64827
-0.707469 4.77772 -1.63398
-0.758332 5.15249 -1.61222
-0.819951 5.61329 -1.59606
-0.891406 6.13976 -1.57326
-0.97824 6.78835 -1.55348
-1.07654 7.52481 -1.52045
-1.23859 8.434 -1.48142
-1.39419 9.54792 -1.42995
-1.61393 11.1342 -1.38077
-1.93425 13.4444 -1.32813
-2.508 17.5529 -1.29581
-3.57961 25.2587 -1.24299
-5.27004 37.44 -0.931321
-7.00256 49.9252 -0.053979
-6.98718 49.9506 1.12454
-6.96713 49.9426 2.3127
-6.95736 49.944 3.49477
-6.94787 50.0119 4.68675
-6.92749 50.0018 5.88679
-6.9144 49.9793 7.08216
-6.89896 50.0045 8.29185
-6.88299 50.0265 9.52044
-0.0737666 0.221587 -0.351414
-0.0722661 0.211871 -0.328525
-0.0809789 0.276572 -0.3468
-0.0869782 0.322948 -0.352194
-0.091856 0.360814 -0.351412
-0.0918054 0.362786 -0.332732
-0.0936499 0.377113 -0.31954
-0.557511 3.84526 -1.66907
-0.594678 4.13552 -1.66408
-0.63347 4.43329 -1.64826
-0.676706 4.77259 -1.63099
-0.724787 5.14959 -1.61001
-0.785203 5.61445 -1.59505
-0.852954 6.14533 -1.57326
-0.935165 6.78857 -1.55224
-1.02917 7.52568 -1.51934
-1.18757 8.43755 -1.48078
-1.33578 9.55829 -1.43025
-1.54599 11.1299 -1.37917
-1.85407 13.4498 -1.32761
-2.39039 17.4827 -1.28982
-3.43826 25.3248 -1.24525
-5.12125 37.9854 -0.943874
-6.81117 50.7691 -0.0547175
-6.80404 50.7912 1.14257
-6.78204 50.7705 2.34906
-6.76782 50.8076 3.55205
-6.75552 50.8602 4.76199
-6.73378 50.772 5.97229
-6.72028 50.8152 7.19415
-6.70582 50.8512 8.4247
-6.69747 50.8649 9.67154
-0.070978 0.225846 -0.353433
-0.0702042 0.221324 -0.333407
-0.077811 0.280887 -0.348661
-0.0833313 0.32552 -0.353077
-0.0849561 0.340177 -0.341112
-0.0858429 0.349225 -0.326193
-0.0884658 0.370696 -0.316432
-0.532711 3.8489 -1.66907
-0.568192 4.13937 -1.66408
-0.605398 4.43914 -1.6489
-0.647375 4.7845 -1.63338
-0.692958 5.15989 -1.61167
-0.749844 5.61933 -1.59506
-0.814552 6.15074 -1.57326
-0.893169 6.79635 -1.55266
-0.983526 7.53979 -1.52084
-1.13546 8.44479 -1.4808
-1.2773 9.56842 -1.43055
-1.48434 11.1885 -1.38503
-1.77099 13.451 -1.32672
-2.27929 17.4554 -1.28693
-3.28846 25.365 -1.24629
-4.90591 38.1106 -0.946324
-6.5679 51.2813 -0.0552422
-6.6023 51.6324 1.16058
-6.58545 51.6526 2.38789
-6.47293 50.9165 3.55667
-6.55294 51.704 4.83687
-6.54617 51.732 6.07995
-6.51915 51.6722 7.3092
-6.50234 51.6935 8.55689
-6.48871 51.6668 9.81561
-0.068297 0.230048 -0.355452
-0.0662369 0.215174 -0.329462
-0.0726323 0.267678 -0.341118
-0.0790228 0.321153 -0.350353
-0.0801171 0.332114 -0.336802
-0.0803147 0.33557 -0.319655
-0.0832429 0.360598 -0.311778
-0.510697 3.86324 -1.67344
-0.542745 4.13911 -1.6627
-0.5788 4.44291 -1.6489
-0.618871 4.78846 -1.63338
-0.662333 5.16417 -1.61167
-0.71666 5.62387 -1.59506
-0.778045 6.15357 -1.57281
-0.853287 6.80158 -1.55267
-0.939073 7.54161 -1.52011
-1.08601 8.4475 -1.48016
-1.22274 9.58175 -1.43141
-1.41998 11.197 -1.38506
-1.69301 13.4532 -1.326
-2.17504 17.4287 -1.28416
-3.15026 25.427 -1.24845
0.00108378 -0.327908 -0.0214835
-5.00683 40.8526 -0.0485647
-6.58866 53.9475 1.21217
-6.56387 53.9105 2.49057
-6.3826 52.5766 3.6698
0.00108378 -0.327908 -0.0214835
0.00108378 -0.327908 -0.0214835
-6.32617 52.5225 7.42369
0.00108378 -0.327908 -0.0214835
0.00108378 -0.327908 -0.0214835
-0.0640214 0.222327 -0.350322
-0.0632427 0.217676 -0.330421
-0.0686924 0.264967 -0.339217
-0.0733004 0.305982 -0.342247
-0.0734444 0.309637 -0.325641
-0.0758351 0.331033 -0.317185
-0.0791742 0.361538 -0.311752
-0.484568 3.85553 -1.66906
-0.516533 4.13885 -1.66132
-0.549333 4.43721 -1.64569
-0.588241 4.79048 -1.63278
-0.631093 5.17203 -1.61278
-0.681778 5.6323 -1.59607
-0.740932 6.16026 -1.57328
-0.810902 6.7951 -1.55018
-0.894558 7.55512 -1.52161
-1.03388 8.45419 -1.48018
-1.16587 9.591 -1.43171
-1.3513 11.2037 -1.38485
0.00107166 -0.327499 -0.0214573
-2.07019 17.4195 -1.28267
-2.99893 25.4596 -1.24921
0.00107166 -0.327499 -0.0214573
0.00107166 -0.327499 -0.0214573
-6.25952 53.9265 1.21059
-6.23454 53.8854 2.48741
-6.17979 53.501 3.7315
-6.16532 53.5506 5.00192
-6.14238 53.526 6.28096
-6.1218 53.4383 7.54732
0.00107166 -0.327499 -0.0214573
0.00107166 -0.327499 -0.0214573
-0.0623487 0.236762 -0.358469
-0.0597415 0.215001 -0.328434
-0.0642984 0.257056 -0.334489
-0.0686819 0.297926 -0.337731
-0.0677772 0.292464 -0.317052
-0.070833 0.320939 -0.312276
-0.0743706 0.355054 -0.308641
-0.459408 3.84942 -1.6654
-0.490583 4.14028 -1.66063
-0.522918 4.4501 -1.64889
-0.559175 4.79801 -1.63397
-0.598508 5.16834 -1.61056
-0.646735 5.63067 -1.59455
-0.702735 6.15711 -1.57143
-0.770027 6.80201 -1.5506
-0.848787 7.55668 -1.52087
-0.983484 8.46233 -1.48052
-1.10895 9.59988 -1.43201
-1.2866 11.2274 -1.38675
-1.53478 13.5006 -1.3287
-1.96423 17.3979 -1.28033
-2.85557 25.5244 -1.25157
0.00111734 -0.327198 -0.0214375
-4.88335 44.1031 -0.0510122
-5.99438 54.3954 1.2202
-5.97204 54.3776 2.50831
-5.96692 54.4287 3.79348
-5.94992 54.4607 5.08324
-5.93197 54.4833 6.38861
-5.91945 54.4674 7.687
0.00111734 -0.327198 -0.0214375
0.00111734 -0.327198 -0.0214375
-0.0589425 0.235758 -0.357428
-0.055828 0.208821 -0.324486
-0.0605198 0.254257 -0.332589
-0.0631869 0.280913 -0.328724
-0.0631075 0.282455 -0.311889
-0.0661498 0.312666 -0.308179
-0.0688857 0.341118 -0.302446
-0.437092 3.86905 -1.67196
-0.465267 4.14719 -1.662
-0.494582 4.44591 -1.64632
-0.529781 4.80347 -1.63456
-0.567473 5.17779 -1.61222
-0.61298 5.64047 -1.59608
-0.666148 6.16915 -1.57328
-0.730392 6.82033 -1.55353
-0.802895 7.55789 -1.52014
-0.932807 8.46824 -1.48054
-1.05174 9.60653 -1.43202
-1.21855 11.2212 -1.38514
-1.45222 13.4818 -1.32612
-1.86061 17.3954 -1.27939
-2.70479 25.523 -1.25081
-3.97749 37.8174 -0.93736
0.00110522 -0.32679 -0.0214115
0.00110522 -0.32679 -0.0214115
0.00110522 -0.32679 -0.0214115
-4.53603 43.6519 3.04057
0.00110522 -0.32679 -0.0214115
-5.71309 55.4636 6.49903
-5.70147 55.4568 7.82114
-5.68171 55.4669 9.15412
0.00110522 -0.32679 -0.0214115
-0.0551822 0.231352 -0.354341
-0.0524343 0.206088 -0.322501
-0.0572119 0.255065 -0.332563
-0.0584237 0.26922 -0.322412
-0.0588559 0.27607 -0.308435
-0.0608904 0.298866 -0.301642
-0.0645087 0.336394 -0.300108
-0.0692503 0.387262 -0.301943
-0.438703 4.15025 -1.66199
-0.467463 4.45281 -1.6476
-0.499317 4.79734 -1.63157
-0.534062 5.17386 -1.61001
-0.578254 5.64051 -1.59506
-0.627389 6.17153 -1.57282
-0.688684 6.83276 -1.5552
-0.756287 7.56482 -1.52053
-0.881579 8.468 -1.47957
-0.993156 9.61687 -1.43261
-1.15284 11.2363 -1.3861
-1.37047 13.4685 -1.3241
-1.75321 17.3847 -1.2779
-2.54558 25.4351 -1.24599
-3.731 37.5694 -0.931014
0.0010931 -0.326381 -0.0213852
-5.5561 56.4278 1.26431
-5.53113 56.3883 2.59768
-5.51427 56.4317 3.92774
-5.50298 56.5333 5.26945
-5.48965 56.5104 6.61729
-5.46613 56.4857 7.9608
-5.44621 56.4982 9.31793
0.0010931 -0.326381 -0.0213852
-0.0518743 0.23216 -0.354313
-0.0489292 0.203276 -0.320519
-0.0529215 0.24696 -0.327842
-0.0535614 0.255721 -0.315201
-0.0554822 0.27863 -0.309268
-0.0567872 0.294127 -0.299177
-0.0590313 0.320604 -0.293139
-0.0641757 0.378809 -0.298276
-0.412212 4.14561 -1.65925
-0.439043 4.4559 -1.6476
-0.46872 4.79865 -1.63098
-0.502694 5.1811 -1.61111
-0.542965 5.64607 -1.59558
-0.589763 6.17344 -1.57237
-0.646703 6.82916 -1.55354
-0.710657 7.56757 -1.52016
-0.829142 8.47151 -1.47926
-0.9362 9.62675 -1.43319
-1.08362 11.2375 -1.38542
-1.29396 13.5344 -1.32956
-1.65248 17.4088 -1.27894
-2.39061 25.4283 -1.24504
-3.48215 37.3325 -0.924949
0.00108098 -0.325973 -0.0213592
-5.31084 57.4576 1.28665
-5.28773 57.4392 2.64445
0.00108098 -0.325973 -0.0213592
-5.26641 57.5642 5.36219
-5.24264 57.5396 6.73346
-5.2309 57.5346 8.10351
-5.21247 57.569 9.48852
0.00108098 -0.325973 -0.0213592
-0.0477154 0.222511 -0.348165
-0.0460426 0.20572 -0.321474
-0.0482434 0.231898 -0.319354
-0.0497368 0.251094 -0.312481
-0.0513342 0.272052 -0.305823
-0.05336 0.296713 -0.299966
-0.0543501 0.310353 -0.288481
-0.0597867 0.375809 -0.296799
-0.386559 4.15017 -1.65993
-0.411333 4.4569 -1.64695
-0.439151 4.80166 -1.63098
-0.471106 5.1862 -1.61166
-0.508764 5.65147 -1.59608
-0.553101 6.18679 -1.57468
-0.605799 6.83708 -1.55438
-0.665178 7.57193 -1.52017
-0.778603 8.47847 -1.4796
-0.87836 9.62647 -1.43237
-1.01751 11.2498 -1.38615
-1.21368 13.538 -1.32922
-1.54836 17.3966 -1.27744
-2.23907 25.4062 -1.24342
0.00106886 -0.325565 -0.0213329
0.00106886 -0.325565 -0.0213329
-4.68611 54.0991 1.20977
0.00106886 -0.325565 -0.0213329
-5.03997 58.5956 4.07347
0.00106886 -0.325565 -0.0213329
0.00106886 -0.325565 -0.0213329
-4.98606 58.6103 8.25009
0.00106886 -0.325565 -0.0213329
0.00106886 -0.325565 -0.0213329
-0.0448691 0.226662 -0.350182
-0.0419446 0.19419 -0.314587
-0.0447336 0.228955 -0.317456
-0.04566 0.242886 -0.307964
-0.0474509 0.267325 -0.30323
-0.05024 0.302841 -0.302389
-0.0501883 0.305513 -0.286143
-0.0556097 0.374682 -0.296048
-0.360903 4.15458 -1.66061
-0.383614 4.45763 -1.64631
-0.409896 4.80832 -1.63217
-0.43935 5.18914 -1.61167
-0.474124 5.65274 -1.59558
-0.515303 6.18641 -1.57376
-0.564403 6.83894 -1.55397
-0.619202 7.57011 -1.51906
-0.727837 8.48318 -1.47961
-0.821331 9.6357 -1.43294
-0.950777 11.2559 -1.38618
-1.13299 13.5352 -1.32832
-1.44522 17.3936 -1.27665
-2.09355 25.4529 -1.24512
0.00105674 -0.325156 -0.0213069
0.00105674 -0.325156 -0.0213069
-4.82123 59.7121 1.33584
-4.7953 59.6659 2.74397
-4.78587 59.6941 4.14756
-4.77185 59.7976 5.56385
-4.74859 59.7854 6.9882
-4.73426 59.752 8.40608
-4.71346 59.7709 9.84001
0.00105674 -0.325156 -0.0213069
-0.0407771 0.21525 -0.343013
-0.0394535 0.201733 -0.31849
-0.0412817 0.226119 -0.315551
-0.0430593 0.252466 -0.312433
-0.043932 0.266251 -0.302347
-0.0457796 0.292595 -0.297478
-0.0468615 0.309894 -0.287663
-0.0507574 0.364261 -0.291652
-0.335084 4.15696 -1.6606
-0.355791 4.45643 -1.64502
-0.380108 4.80721 -1.63097
-0.407594 5.19208 -1.61166
-0.439428 5.65193 -1.59456
-0.477661 6.18777 -1.5733
-0.523212 6.84435 -1.55439
-0.574251 7.58177 -1.52056
-0.678045 8.49942 -1.48158
-0.763802 9.63875 -1.43268
-0.884973 11.2735 -1.3876
-1.05389 13.5519 -1.32929
-1.34334 17.4041 -1.27684
-1.94124 25.4151 -1.24284
0.00115618 -0.324826 -0.021285
0.00115618 -0.324826 -0.021285
-4.55733 60.84 1.36048
-4.53476 60.8405 2.79661
-4.52835 60.915 4.23021
-4.50677 60.9288 5.66616
-4.48385 60.9257 7.11775
-4.4691 60.887 8.56123
-4.45225 60.9668 10.0316
0.00115618 -0.324826 -0.021285
-0.0372319 0.210728 -0.339926
-0.0357271 0.192004 -0.312576
-0.0380773 0.226733 -0.315529
-0.039243 0.245976 -0.308816
-0.0406081 0.268646 -0.303184
-0.0426519 0.30058 -0.300712
-0.0430652 0.308698 -0.286869
-0.0471512 0.370497 -0.293817
-0.307978 4.15182 -1.65785
-0.328223 4.45878 -1.64501
-0.350628 4.8116 -1.63156
-0.375057 5.19856 -1.61277
-0.405205 5.65861 -1.59558
-0.439243 6.19477 -1.57422
-0.480547 6.84578 -1.55398
-0.527171 7.5835 -1.5202
-0.627316 8.50552 -1.48192
-0.7049 9.64746 -1.43326
-0.818274 11.2807 -1.38786
-0.973783 13.5561 -1.32914
-1.22679 17.2508 -1.26549
-1.78739 25.3466 -1.23915
-2.56295 36.6743 -0.908003
0.00114406 -0.324418 -0.0212587
-4.28528 62.0346 1.38663
-4.26238 62.0361 2.85025
-4.24078 62.0579 4.30746
-4.22636 62.1849 5.78006
-4.21141 62.1442 7.25652
-4.18956 62.162 8.73604
0.00114406 -0.324418 -0.0212587
-1.90021 28.2662 5.35677
-0.0333996 0.201042 -0.333775
-0.0325316 0.19075 -0.31158
-0.0348192 0.227375 -0.315504
-0.0358733 0.24654 -0.308797
-0.0366254 0.262117 -0.29973
-0.0389096 0.299353 -0.299877
-0.0393151 0.309328 -0.286848
-0.042816 0.367467 -0.292336
-0.282615 4.16134 -1.66059
-0.300097 4.46484 -1.64629
-0.320377 4.81783 -1.63275
-0.343126 5.19906 -1.61222
-0.369353 5.65548 -1.59406
-0.401531 6.19561 -1.57377
-0.439237 6.84886 -1.55398
-0.482096 7.59467 -1.52169
-0.574782 8.50755 -1.48161
-0.647843 9.65769 -1.43411
-0.749662 11.2897 -1.38835
-0.891042 13.5561 -1.32861
0.00113194 -0.324009 -0.0212327
-1.63549 25.3651 -1.23961
0.00113194 -0.324009 -0.0212327
0.00113194 -0.324009 -0.0212327
-4.82962 76.627 1.71509
-4.90437 78.28 3.59649
-4.77144 76.3878 5.29948
0.00113194 -0.324009 -0.0212327
0.00113194 -0.324009 -0.0212327
0.00113194 -0.324009 -0.0212327
-4.65911 76.1835 12.5168
0.00113194 -0.324009 -0.0212327
-0.0308902 0.210193 -0.338859
-0.0295055 0.189681 -0.31057
-0.031417 0.224374 -0.313605
-0.0323631 0.243601 -0.306974
-0.0332558 0.262681 -0.29971
-0.0348219 0.290898 -0.295778
-0.0351682 0.300778 -0.282962
-0.0388935 0.369899 -0.293046
-0.256474 4.15766 -1.65853
-0.272362 4.46502 -1.64564
-0.290099 4.80851 -1.62917
-0.311296 5.20135 -1.61221
-0.334906 5.65792 -1.59405
-0.363869 6.19629 -1.5733
-0.398026 6.85359 -1.55441
-0.43636 7.59568 -1.52133
-0.524475 8.52099 -1.48325
-0.589843 9.65373 -1.43301
-0.682613 11.2922 -1.38814
-0.811738 13.5733 -1.32977
-1.02285 17.2407 -1.26389
-1.48658 25.3586 -1.23894
0.00111982 -0.323601 -0.0212064
0.00111982 -0.323601 -0.0212064
0.00111982 -0.323601 -0.0212064
0.00111982 -0.323601 -0.0212064
0.00111982 -0.323601 -0.0212064
0.00111982 -0.323601 -0.0212064
0.00111982 -0.323601 -0.0212064
0.00111982 -0.323601 -0.0212064
0.00111982 -0.323601 -0.0212064
0.00111982 -0.323601 -0.0212064
-0.027277 0.200527 -0.332704
-0.0266149 0.191989 -0.311527
-0.0280726 0.22148 -0.311698
-0.0288073 0.238829 -0.304255
-0.0294881 0.256036 -0.29626
-0.0315366 0.296976 -0.298198
-0.0314794 0.299524 -0.282167
-0.0342097 0.357539 -0.287919
-0.230639 4.15949 -1.65852
-0.244884 4.46874 -1.64628
-0.260603 4.81235 -1.62976
-0.279463 5.20349 -1.61221
-0.300667 5.66406 -1.59507
-0.3262 6.19669 -1.57285
-0.356646 6.85616 -1.55441
-0.390837 7.6005 -1.5217
-0.473722 8.52823 -1.48391
-0.532985 9.66918 -1.43471
-0.616438 11.3103 -1.3898
-0.731147 13.5682 -1.32886
0.0011077 -0.323193 -0.0211804
-1.3363 25.3232 -1.23694
0.0011077 -0.323193 -0.0211804
0.0011077 -0.323193 -0.0211804
0.0011077 -0.323193 -0.0211804
0.0011077 -0.323193 -0.0211804
-3.88386 76.3688 5.29405
0.0011077 -0.323193 -0.0211804
0.0011077 -0.323193 -0.0211804
-3.80431 76.2049 10.6922
-3.77141 76.1088 12.4959
-3.73845 76.0129 14.3226
-0.0238657 0.19248 -0.327574
-0.0231982 0.183818 -0.3066
-0.024543 0.213243 -0.306973
-0.0257437 0.242945 -0.30603
-0.026218 0.258402 -0.297093
-0.0274909 0.290213 -0.294919
-0.0278369 0.300096 -0.282144
-0.0304991 0.361844 -0.289355
-0.203884 4.15743 -1.65714
-0.217347 4.47236 -1.64692
-0.231056 4.81424 -1.62976
-0.246378 5.19969 -1.61055
-0.265939 5.66216 -1.59405
-0.287752 6.20471 -1.57424
-0.314113 6.86048 -1.55484
-0.343396 7.59514 -1.52023
-0.423015 8.53713 -1.48489
-0.473771 9.67457 -1.435
-0.549589 11.3181 -1.39029
-0.651542 13.5825 -1.32983
-0.82494 17.4158 -1.27554
-1.18604 25.2769 -1.23447
0.00109558 -0.322784 -0.0211543
0.00109558 -0.322784 -0.0211543
0.00109558 -0.322784 -0.0211543
0.00109558 -0.322784 -0.0211543
-3.42781 76.3729 5.2925
-3.39521 76.2741 7.07705
-3.38097 76.2864 8.89119
-3.3481 76.181 10.6856
-3.31598 76.0889 12.4888
-3.29785 76.012 14.3182
-0.0212722 0.20499 -0.334704
-0.0202498 0.186018 -0.307562
-0.0214748 0.217227 -0.308835
-0.0220887 0.236368 -0.302411
-0.0226157 0.251806 -0.293638
-0.02391 0.288898 -0.294084
-0.0240944 0.298871 -0.281346
-0.026379 0.358699 -0.287874
-0.178095 4.15896 -1.65713
-0.189702 4.47392 -1.64691
-0.20144 4.81773 -1.63035
-0.214638 5.20335 -1.6111
-0.231477 5.66405 -1.59405
-0.249911 6.20085 -1.57285
-0.273762 6.85673 -1.55358
-0.299546 7.6072 -1.52209
-0.371206 8.55953 -1.48817
-0.416347 9.6815 -1.43558
-0.480598 11.3254 -1.39078
-0.569245 13.5924 -1.33043
-0.722672 17.4186 -1.27545
-1.03193 25.2301 -1.232
0.00108346 -0.322376 -0.0211281
0.00108346 -0.322376 -0.0211281
0.00108346 -0.322376 -0.0211281
0.00108346 -0.322376 -0.0211281
-2.98497 76.3639 5.29028
0.00108346 -0.322376 -0.0211281
0.00108346 -0.322376 -0.0211281
-2.90598 76.1619 10.68
-2.88723 76.0574 12.4804
-2.85627 75.981 14.3087
-0.0182018 0.202078 -0.332637
-0.017106 0.177838 -0.302633
-0.0184318 0.217753 -0.30881
-0.0192649 0.24579 -0.306883
-0.019632 0.261302 -0.297903
-0.0206247 0.294976 -0.296501
-0.0206595 0.301182 -0.282098
-0.0221617 0.351771 -0.284937
-0.15254 4.1696 -1.66056
-0.161849 4.46965 -1.64498
-0.172032 4.82493 -1.63214
-0.182836 5.20676 -1.61165
-0.197058 5.66762 -1.59456
-0.212332 6.20262 -1.57285
-0.231159 6.86054 -1.55401
-0.25247 7.60922 -1.5221
-0.321518 8.55989 -1.48785
-0.358857 9.69002 -1.43644
-0.415693 11.3323 -1.39127
-0.491906 13.6058 -1.33139
-0.621176 17.4428 -1.27691
-0.888315 25.2118 -1.23094
0.00112914 -0.322075 -0.0211083
0.00112914 -0.322075 -0.0211083
0.00112914 -0.322075 -0.0211083
0.00112914 -0.322075 -0.0211083
-2.54157 76.3323 5.28667
0.00112914 -0.322075 -0.0211083
0.00112914 -0.322075 -0.0211083
-2.46505 76.1659 10.6781
-2.43196 76.0105 12.4698
0.00112914 -0.322075 -0.0211083
-0.0152805 0.207719 -0.335679
-0.0144367 0.187063 -0.307513
-0.0151371 0.214694 -0.306909
-0.0158044 0.242686 -0.305065
-0.0163418 0.267251 -0.300449
-0.017036 0.295519 -0.296476
-0.0171097 0.305405 -0.283619
-0.0181886 0.352244 -0.284918
-0.12644 4.16336 -1.65781
-0.133483 4.47288 -1.64561
-0.141491 4.8244 -1.63153
-0.151083 5.21199 -1.61275
-0.161593 5.6729 -1.59557
-0.174745 6.20411 -1.57285
-0.189805 6.86212 -1.55401
-0.206857 7.61481 -1.52286
-0.268932 8.56604 -1.48851
-0.301195 9.69234 -1.43645
-0.346961 11.3508 -1.39316
-0.409028 13.6029 -1.33086
-0.519672 17.4764 -1.27907
-0.735653 25.1791 -1.22922
0.00111702 -0.321666 -0.0210821
0.00111702 -0.321666 -0.0210821
0.00111702 -0.321666 -0.0210821
0.00111702 -0.321666 -0.0210821
0.00111702 -0.321666 -0.0210821
-2.06858 76.225 7.06715
-2.03837 76.1484 8.86861
-2.02111 76.0545 10.6603
-1.99033 75.9507 12.4576
-1.96022 75.8707 14.2819
-0.0122782 0.209951 -0.336675
-0.0112071 0.175342 -0.300623
-0.0120815 0.216949 -0.307825
-0.0125424 0.243192 -0.30504
-0.0127893 0.260491 -0.297
-0.0132592 0.288611 -0.293199
-0.0134169 0.304015 -0.282826
-0.0144638 0.360252 -0.287806
-0.100777 4.17193 -1.66054
-0.106063 4.48524 -1.64946
-0.111812 4.82552 -1.63153
-0.119123 5.20744 -1.61109
-0.1269 5.66831 -1.59405
-0.137096 6.20537 -1.57285
-0.148605 6.87136 -1.55568
-0.161077 7.61431 -1.52249
-0.217915 8.57764 -1.49015
-0.243743 9.70224 -1.43758
-0.279737 11.353 -1.39318
-0.328868 13.6074 -1.33109
-0.417367 17.4914 -1.27997
-0.587235 25.1155 -1.22608
0.0011049 -0.321258 -0.0210561
0.0011049 -0.321258 -0.0210561
0.0011049 -0.321258 -0.0210561
-1.67379 76.3897 3.50129
-1.65678 76.2836 5.281
-1.62673 76.1943 7.063
-1.597 76.1176 8.86348
-1.5797 75.9921 10.6498
0.0011049 -0.321258 -0.0210561
0.0011049 -0.321258 -0.0210561
-0.00924539 0.215513 -0.339719
-0.00845205 0.181025 -0.303543
-0.00893962 0.215668 -0.30686
-0.00941262 0.249062 -0.30771
-0.00941566 0.260918 -0.296979
-0.00979678 0.29636 -0.296437
-0.00973159 0.300769 -0.28126
-0.0105911 0.362519 -0.288517
-0.0741026 4.17098 -1.65985
-0.0783571 4.48245 -1.64817
-0.0821319 4.82453 -1.63093
-0.0861723 5.2026 -1.60943
-0.0924138 5.66938 -1.59405
-0.0985074 6.21432 -1.5747
-0.105872 6.87243 -1.55569
-0.114141 7.62147 -1.52361
-0.166674 8.57717 -1.48984
-0.184258 9.70583 -1.43788
-0.212559 11.3608 -1.3939
-0.248703 13.6155 -1.33168
-0.311939 17.508 -1.281
-0.439683 25.0648 -1.22361
0.00109278 -0.320849 -0.02103
-0.83152 49.7442 -0.0575806
0.00109278 -0.320849 -0.02103
-1.23186 76.3945 3.50082
-1.20182 76.2766 5.2796
-1.17289 76.219 7.06418
-1.15703 76.1497 8.86597
-1.12786 76.0719 10.6595
0.00109278 -0.320849 -0.02103
0.00109278 -0.320849 -0.02103
-0.00605027 0.214256 -0.338674
-0.00541794 0.179684 -0.302541
-0.0058714 0.219652 -0.308717
-0.00600589 0.245929 -0.30589
-0.00596264 0.255959 -0.294384
-0.0063079 0.298703 -0.297225
-0.00607768 0.303059 -0.282009
-0.00662515 0.361139 -0.287763
-0.0482289 4.17357 -1.66053
-0.0506367 4.48123 -1.64753
-0.0524843 4.83103 -1.63272
-0.0544984 5.21499 -1.61274
-0.0579122 5.674 -1.59507
-0.0608476 6.21319 -1.57424
-0.0657003 6.87535 -1.55611
-0.0696578 7.61451 -1.52213
-0.11384 8.58037 -1.49018
-0.126514 9.71113 -1.43845
-0.143181 11.3583 -1.39346
-0.166066 13.625 -1.33246
-0.209684 17.5478 -1.28372
-0.288643 25.0335 -1.22208
0.00108066 -0.320441 -0.0210038
-0.542777 49.7185 -0.0577357
0.00108066 -0.320441 -0.0210038
0.00108066 -0.320441 -0.0210038
0.00108066 -0.320441 -0.0210038
0.00108066 -0.320441 -0.0210038
0.00108066 -0.320441 -0.0210038
0.00108066 -0.320441 -0.0210038
0.00108066 -0.320441 -0.0210038
0.00108066 -0.320441 -0.0210038
-0.00304682 0.209581 -0.335583
-0.00268869 0.181905 -0.303495
-0.00286958 0.221879 -0.309632
-0.00280592 0.244543 -0.30497
-0.00268051 0.260048 -0.296072
-0.00270748 0.300966 -0.298016
-0.00265031 0.303515 -0.281985
-0.0026987 0.363434 -0.288469
-0.0222535 4.17224 -1.65984
-0.0229636 4.48184 -1.64752
-0.0227897 4.83161 -1.63271
-0.0225711 5.21171 -1.61164
-0.0233633 5.67075 -1.59405
-0.0231773 6.21573 -1.57471
-0.0230066 6.87992 -1.55695
-0.0225924 7.62694 -1.52437
-0.0641648 8.58719 -1.49116
-0.0687573 9.71407 -1.43875
-0.0779469 11.3633 -1.39394
-0.0881552 13.6221 -1.33211
-0.106781 17.5591 -1.28447
0.00106854 -0.320033 -0.0209777
0.00106854 -0.320033 -0.0209777
-0.253682 49.5513 -0.0577794
0.00106854 -0.320033 -0.0209777
0.00106854 -0.320033 -0.0209777
0.00106854 -0.320033 -0.0209777
0.00106854 -0.320033 -0.0209777
0.00106854 -0.320033 -0.0209777
0.00106854 -0.320033 -0.0209777
0.00106854 -0.320033 -0.0209777
-0.0769773 28.6246 5.41034
0.000139151 0.206454 -0.333522
0.000351605 0.173531 -0.298571
0.000383874 0.220519 -0.308668
0.000547032 0.241381 -0.303149
0.000778996 0.265811 -0.298623
0.000877468 0.299515 -0.29718
0.00112259 0.307581 -0.283508
0.0013573 0.356419 -0.285529
0.00356057 4.17083 -1.65914
0.0055164 4.47665 -1.64559
0.00772118 4.83023 -1.63211
0.00930832 5.21024 -1.61108
0.012236 5.67315 -1.59455
0.0144444 6.22008 -1.57563
0.0184873 6.87443 -1.5557
0.0232202 7.62731 -1.52437
-0.0112578 8.58974 -1.4915
-0.0109352 9.72055 -1.43961
-0.0086047 11.3718 -1.3949
-0.0053777 13.6267 -1.33252
-0.00377585 17.5438 -1.28339
0.00348815 24.8741 -1.21456
0.00105642 -0.319624 -0.0209515
0.00105642 -0.319624 -0.0209515
0.00105642 -0.319624 -0.0209515
0.00105642 -0.319624 -0.0209515
0.00105642 -0.319624 -0.0209515
0.00105642 -0.319624 -0.0209515
0.00105642 -0.319624 -0.0209515
0.00105642 -0.319624 -0.0209515
0.00105642 -0.319624 -0.0209515
0.00105642 -0.319624 -0.0209515
0.00315871 0.210282 -0.335542
0.0032053 0.177404 -0.300509
0.00346341 0.217344 -0.306767
0.0038131 0.241751 -0.303127
0.00407874 0.262625 -0.296884
0.00445466 0.296206 -0.29553
0.00470037 0.304277 -0.28194
0.00523713 0.360537 -0.286964
0.0294833 4.16735 -1.65777
0.0332262 4.48635 -1.64879
0.0374362 4.83422 -1.6333
0.0411458 5.21242 -1.61163
0.0466852 5.66957 -1.59353
0.0521791 6.22027 -1.57563
0.0599403 6.87847 -1.55654
0.0690999 7.64317 -1.52735
0.0400161 8.5921 -1.49183
0.0468946 9.71695 -1.43906
0.0587288 11.3741 -1.39516
0.0750046 13.6349 -1.3333
0.0992218 17.5518 -1.284
0.149492 25.0278 -1.22192
0.00110209 -0.319323 -0.0209317
0.00110209 -0.319323 -0.0209317
0.00110209 -0.319323 -0.0209317
0.607448 84.5433 3.87319
0.00110209 -0.319323 -0.0209317
0.00110209 -0.319323 -0.0209317
0.00110209 -0.319323 -0.0209317
0.70221 84.5328 11.84
0.732915 84.4911 13.8483
0.00110209 -0.319323 -0.0209317
0.00617935 0.207205 -0.333477
0.00613854 0.184769 -0.304409
0.0066106 0.224814 -0.310502
0.00711215 0.247435 -0.305802
0.0075302 0.266528 -0.298579
0.00799357 0.296583 -0.295506
0.00823182 0.3028 -0.281145
0.00916043 0.360844 -0.286944
0.0554568 4.17881 -1.66187
0.0608509 4.48466 -1.64814
0.067072 4.82671 -1.63091
0.0729756 5.20669 -1.60997
0.0813255 5.67723 -1.59557
0.0898076 6.21632 -1.57471
0.101511 6.88624 -1.55821
0.114868 7.63524 -1.52587
0.0914099 8.59608 -1.49249
0.104786 9.72878 -1.44075
0.126181 11.3799 -1.39588
0.155558 13.6506 -1.33482
0.202282 17.5653 -1.28503
0.295071 24.987 -1.2201
0.00108997 -0.318915 -0.0209057
0.00108997 -0.318915 -0.0209057
0.00108997 -0.318915 -0.0209057
0.00108997 -0.318915 -0.0209057
0.00108997 -0.318915 -0.0209057
0.00108997 -0.318915 -0.0209057
0.00108997 -0.318915 -0.0209057
0.00108997 -0.318915 -0.0209057
0.00108997 -0.318915 -0.0209057
0.00108997 -0.318915 -0.0209057
0.00929325 0.209357 -0.33447
0.00905219 0.181638 -0.302423
0.00982289 0.225154 -0.31048
0.0104113 0.244244 -0.30398
0.01085 0.266926 -0.298554
0.0115785 0.295132 -0.294667
0.0120047 0.306865 -0.282664
0.0131446 0.363032 -0.287651
0.0819705 4.16942 -1.65843
0.0884771 4.48086 -1.64685
0.0968572 4.83429 -1.63329
0.105803 5.2066 -1.60996
0.115787 5.67324 -1.59455
0.128592 6.2161 -1.57471
0.142972 6.882 -1.55738
0.160536 7.62698 -1.52439
0.144181 8.5858 -1.49088
0.164496 9.72831 -1.44077
0.195614 11.3794 -1.39589
0.23854 13.6538 -1.33523
0.308384 17.5622 -1.28494
0.445466 24.9992 -1.22084
0.00107785 -0.318506 -0.0208795
0.00107785 -0.318506 -0.0208795
0.00107785 -0.318506 -0.0208795
0.00107785 -0.318506 -0.0208795
1.50862 78.8819 5.45832
0.00107785 -0.318506 -0.0208795
0.00107785 -0.318506 -0.0208795
0.00107785 -0.318506 -0.0208795
0.00107785 -0.318506 -0.0208795
0.00107785 -0.318506 -0.0208795
0.0122996 0.211452 -0.335466
0.0118005 0.178557 -0.300434
0.0128613 0.223679 -0.309519
0.0136566 0.249899 -0.306655
0.0142894 0.269105 -0.299384
0.0152639 0.302724 -0.297905
0.0155551 0.308961 -0.283418
0.0168131 0.354099 -0.28398
0.107996 4.17679 -1.66117
0.11606 4.47874 -1.6462
0.12646 4.83017 -1.63209
0.137656 5.20824 -1.61051
0.150257 5.67095 -1.59403
0.16635 6.22152 -1.57609
0.185922 6.88926 -1.55905
0.208081 7.63997 -1.527
0.19417 8.59715 -1.49284
0.222354 9.72964 -1.44106
0.260962 11.3785 -1.39591
0.316673 13.6567 -1.33563
0.412218 17.5965 -1.28752
0.58699 25.0007 -1.2211
0.00106573 -0.318098 -0.0208534
1.09387 45.4569 -0.0555273
0.00106573 -0.318098 -0.0208534
0.00106573 -0.318098 -0.0208534
0.00106573 -0.318098 -0.0208534
0.00106573 -0.318098 -0.0208534
0.00106573 -0.318098 -0.0208534
0.00106573 -0.318098 -0.0208534
0.00106573 -0.318098 -0.0208534
0.00106573 -0.318098 -0.0208534
0.0156933 0.220246 -0.340557
0.0147528 0.180621 -0.301392
0.0161399 0.225776 -0.310435
0.0168276 0.243061 -0.303037
0.0177786 0.269317 -0.299367
0.0186603 0.29575 -0.294621
0.0193279 0.313026 -0.284935
0.0210378 0.361821 -0.286873
0.133834 4.17456 -1.66047
0.14476 4.48403 -1.64812
0.156947 4.82978 -1.63208
0.169458 5.20773 -1.6105
0.18589 5.67423 -1.59505
0.203831 6.213 -1.57425
0.227288 6.88455 -1.55822
0.253821 7.63709 -1.52663
0.247175 8.60019 -1.4935
0.280224 9.72663 -1.44079
0.330419 11.3791 -1.39617
0.399844 13.6629 -1.33641
0.515297 17.5902 -1.28728
0.738073 25.0251 -1.2225
0.00110737 -0.317661 -0.020825
0.00110737 -0.317661 -0.020825
0.00110737 -0.317661 -0.020825
0.00110737 -0.317661 -0.020825
0.00110737 -0.317661 -0.020825
0.00110737 -0.317661 -0.020825
0.00110737 -0.317661 -0.020825
0.00110737 -0.317661 -0.020825
0.00110737 -0.317661 -0.020825
0.00110737 -0.317661 -0.020825
0.0188782 0.224025 -0.342575
0.0182016 0.198331 -0.311179
0.0190993 0.220815 -0.307588
0.0201059 0.245156 -0.303912
0.0209627 0.264214 -0.296771
0.0218298 0.286939 -0.290522
0.0225418 0.300412 -0.279505
0.0247783 0.356485 -0.284665
0.159679 4.17417 -1.66046
0.172707 4.49104 -1.65068
0.186564 4.82723 -1.63148
0.201491 5.21088 -1.61161
0.220432 5.67339 -1.59505
0.241601 6.21801 -1.57563
0.268716 6.88157 -1.5578
0.299569 7.63394 -1.52626
0.298987 8.61085 -1.49546
0.338213 9.72915 -1.44136
0.397812 11.3774 -1.39619
0.480678 13.6687 -1.33718
0.617966 17.5734 -1.28633
0.883339 25.0009 -1.22162
0.00109525 -0.317252 -0.0207989
0.00109525 -0.317252 -0.0207989
0.00109525 -0.317252 -0.0207989
2.86072 78.8158 3.61117
0.00109525 -0.317252 -0.0207989
0.00109525 -0.317252 -0.0207989
0.00109525 -0.317252 -0.0207989
0.00109525 -0.317252 -0.0207989
0.00109525 -0.317252 -0.0207989
0.00109525 -0.317252 -0.0207989
0.0223794 0.232876 -0.34766
0.0213988 0.203836 -0.314099
0.0224695 0.228127 -0.311328
0.0235041 0.249035 -0.305684
0.0247809 0.27532 -0.30189
0.0258153 0.299974 -0.296203
0.0263261 0.306196 -0.281799
0.0289493 0.364179 -0.287557
0.185585 4.17355 -1.66046
0.200127 4.48473 -1.64875
0.216126 4.82465 -1.63087
0.233131 5.2062 -1.61049
0.254697 5.66662 -1.59352
0.279264 6.21691 -1.57563
0.310374 6.8842 -1.55864
0.345492 7.63439 -1.52664
0.35059 8.61327 -1.49612
0.396318 9.73342 -1.44221
0.465593 11.3852 -1.39737
0.561364 13.6701 -1.33758
0.722244 17.5998 -1.28849
1.03063 25.0318 -1.22339
0.00114093 -0.316951 -0.0207792
0.00114093 -0.316951 -0.0207792
0.00114093 -0.316951 -0.0207792
0.00114093 -0.316951 -0.0207792
0.00114093 -0.316951 -0.0207792
0.00114093 -0.316951 -0.0207792
0.00114093 -0.316951 -0.0207792
0.00114093 -0.316951 -0.0207792
0.00114093 -0.316951 -0.0207792
0.00114093 -0.316951 -0.0207792
0.0252793 0.228007 -0.344571
0.0247871 0.212754 -0.318984
0.0256407 0.230167 -0.312244
0.0265882 0.245729 -0.303863
0.0277837 0.266546 -0.297581
0.0295235 0.300165 -0.296183
0.0306436 0.321104 -0.287959
0.0332318 0.371794 -0.290453
0.212146 4.17087 -1.65976
0.228018 4.48761 -1.65002
0.246045 4.82934 -1.63266
0.265763 5.20121 -1.60939
0.289588 5.67318 -1.59555
0.318084 6.21546 -1.57563
0.352963 6.88073 -1.55822
0.392787 7.63461 -1.52701
0.402088 8.61353 -1.49645
0.455588 9.72334 -1.44111
0.533167 11.3868 -1.39785
0.642498 13.6789 -1.33874
0.828273 17.5897 -1.28811
1.17929 25.0837 -1.2262
0.00112881 -0.316543 -0.0207529
0.00112881 -0.316543 -0.0207529
0.00112881 -0.316543 -0.0207529
0.00112881 -0.316543 -0.0207529
0.00112881 -0.316543 -0.0207529
0.00112881 -0.316543 -0.0207529
0.00112881 -0.316543 -0.0207529
0.00112881 -0.316543 -0.0207529
0.00112881 -0.316543 -0.0207529
0.00112881 -0.316543 -0.0207529
0.0287542 0.233391 -0.347613
0.0279456 0.213065 -0.318957
0.0291636 0.235701 -0.315041
0.030284 0.253068 -0.307436
0.0311532 0.264977 -0.2967
0.0330049 0.298519 -0.295347
0.0350612 0.334216 -0.293341
0.0376147 0.377614 -0.292614
0.238007 4.16994 -1.65976
0.256216 4.48088 -1.64809
0.276666 4.83018 -1.63325
0.298268 5.21339 -1.61325
0.324963 5.66984 -1.59504
0.35576 6.21593 -1.57609
0.394524 6.88092 -1.55864
0.438559 7.63261 -1.52702
0.455187 8.61327 -1.49679
0.513551 9.72292 -1.4414
0.603211 11.3957 -1.39927
0.726264 13.6892 -1.34007
0.931631 17.589 -1.28843
1.33849 25.2382 -1.23395
0.00111669 -0.316134 -0.0207269
0.00111669 -0.316134 -0.0207269
0.00111669 -0.316134 -0.0207269
0.00111669 -0.316134 -0.0207269
0.00111669 -0.316134 -0.0207269
0.00111669 -0.316134 -0.0207269
0.00111669 -0.316134 -0.0207269
0.00111669 -0.316134 -0.0207269
0.00111669 -0.316134 -0.0207269
0.00111669 -0.316134 -0.0207269
0.0321621 0.237012 -0.349634
0.0304979 0.204567 -0.31403
0.0330637 0.248188 -0.321605
0.0339797 0.260407 -0.311009
0.0342956 0.261568 -0.294964
0.0367286 0.302425 -0.29695
0.0389422 0.336212 -0.294093
0.0423568 0.390744 -0.297697
0.263872 4.16888 -1.65975
0.283829 4.47978 -1.64808
0.306081 4.82499 -1.63205
0.329811 5.20626 -1.61159
0.359697 5.67209 -1.59605
0.393443 6.21414 -1.57609
0.435652 6.87301 -1.55739
0.484726 7.63615 -1.52814
0.506921 8.61689 -1.49777
0.571687 9.72609 -1.44225
0.670814 11.3943 -1.39953
0.806728 13.6812 -1.33973
1.03522 17.5916 -1.28904
1.49675 25.4198 -1.24302
2.09619 35.5087 -0.881853
0.00110457 -0.315726 -0.0207007
0.00110457 -0.315726 -0.0207007
0.00110457 -0.315726 -0.0207007
0.00110457 -0.315726 -0.0207007
0.00110457 -0.315726 -0.0207007
0.00110457 -0.315726 -0.0207007
0.00110457 -0.315726 -0.0207007
0.00110457 -0.315726 -0.0207007
0.00110457 -0.315726 -0.0207007
0.0350752 0.233876 -0.347563
0.03374 0.208233 -0.31597
0.0363337 0.24842 -0.321579
0.0374894 0.264208 -0.312781
0.0378048 0.265363 -0.296655
0.0410984 0.315389 -0.30263
0.0435863 0.351157 -0.300245
0.0473788 0.405733 -0.303508
0.290202 4.17516 -1.66248
0.311276 4.47463 -1.64679
0.335837 4.82549 -1.63264
0.361813 5.20857 -1.61268
0.393987 5.66647 -1.59503
0.431189 6.21409 -1.57655
0.477338 6.87468 -1.55822
0.530403 7.63171 -1.52777
0.558559 8.61612 -1.49811
0.630159 9.73295 -1.44366
0.738156 11.3887 -1.39931
0.887363 13.6767 -1.33975
1.13813 17.5818 -1.28879
1.64897 25.4751 -1.24611
2.30517 35.5384 -0.882959
0.00109245 -0.315317 -0.0206746
0.00109245 -0.315317 -0.0206746
0.00109245 -0.315317 -0.0206746
0.00109245 -0.315317 -0.0206746
0.00109245 -0.315317 -0.0206746
0.00109245 -0.315317 -0.0206746
0.00109245 -0.315317 -0.0206746
0.00109245 -0.315317 -0.0206746
0.00109245 -0.315317 -0.0206746
