ply
format ascii 1.0
comment Created by Open3D
element vertex 2236
property double x
property double y
property double z
end_header
-65.832 32.423 -1.709
-65.766 32.263 -1.706
-65.513 31.884 -1.695
-65.339 31.546 -1.687
-65.391 31.318 -1.686
-45.021 21.224 -1.093
-65.223 30.485 -1.673
-64.794 30.161 -1.659
-65.054 30.034 -1.664
-65.346 29.92 -1.67
-65.392 29.693 -1.668
-65.099 29.313 -1.657
-65.163 29.096 -1.656
-65.287 28.906 -1.657
-66.738 29.173 -1.695
-65.806 28.52 -1.666
-65.656 28.21 -1.659
-65.7 27.985 -1.658
-66.41 27.551 -1.67
-66.496 27.464 -1.671
-66.639 27.278 -1.673
-70.501 28.599 -1.779
-68 26.842 -1.702
-67.989 26.591 -1.699
-68.006 26.475 -1.698
-69.57 26.832 -1.74
-57.961 22.15 -1.413
-68.509 25.93 -1.706
-69.659 26.115 -1.735
-70.83 26.3 -1.766
-70.229 25.826 -1.747
-68.643 25.121 -1.701
-68.615 24.867 -1.699
-68.856 24.71 -1.703
-69.359 24.644 -1.715
-68.755 24.187 -1.696
-69.96 24.364 -1.727
-69.581 23.987 -1.715
-69.684 23.778 -1.715
-71.092 24.133 -1.753
-68.378 22.974 -1.676
-68.436 22.754 -1.676
-71.621 23.562 -1.762
-71.848 23.387 -1.766
-73.195 23.571 -1.801
-78.436 -10.118 -1.858
-77.908 -10.299 -1.845
-74.945 -10.146 -1.768
-74.818 -10.368 -1.765
-68.364 -9.69 -1.596
-68.266 -9.895 -1.594
-42.187 -6.444 -0.908
-42.346 -6.604 -0.913
-42.213 -6.719 -0.91
-42.187 -6.851 -0.91
-42.083 -6.97 -0.908
-57.718 -10.223 -1.324
-57.678 -10.403 -1.324
-49.095 -9.89 -1.101
-48.968 -10.185 -1.1
-48.679 -10.284 -1.093
-46.658 -10.24 -1.041
-46.914 -10.451 -1.049
-47.127 -10.654 -1.055
-44.829 -10.281 -0.995
-44.742 -10.409 -0.993
-46.506 -10.898 -1.041
-46.412 -11.03 -1.039
-41.798 -10.069 -0.916
-45.761 -11.179 -1.024
-40.89 -10.122 -0.894
-40.812 -10.376 -0.893
-40.954 -10.48 -0.898
-36.289 -9.405 -0.773
-36.396 -9.555 -0.777
-36.046 -9.584 -0.768
-45.471 -12.25 -1.023
-36.278 -9.89 -0.776
-36.085 -9.959 -0.771
-35.955 -10.045 -0.769
-36.114 -10.151 -0.774
-35.705 -10.157 -0.763
-36.518 -10.513 -0.786
-36.096 -10.514 -0.776
-36.195 -10.666 -0.779
-37.341 -11.133 -0.811
-37.299 -11.184 -0.811
-37.336 -11.323 -0.813
-37.392 -11.468 -0.815
-49.357 -15.317 -1.143
-36.116 -11.325 -0.782
-31.599 -10.124 -0.661
-31.531 -10.211 -0.66
-26.514 -8.628 -0.522
-26.406 -8.685 -0.52
-26.175 -8.7 -0.515
-26.364 -8.855 -0.521
-26.173 -8.882 -0.516
-25.765 -8.834 -0.506
-25.543 -8.847 -0.5
-25.476 -8.869 -0.499
-25.429 -8.942 -0.498
-25.273 -8.976 -0.495
-24.836 -8.909 -0.483
-24.684 -8.942 -0.48
-24.583 -8.992 -0.478
-24.445 -9.029 -0.475
-24.223 -8.99 -0.469
-24.021 -9.001 -0.464
-23.534 -8.902 -0.451
-23.318 -8.904 -0.446
-23.282 -8.974 -0.446
-23.008 -8.952 -0.439
-23.449 -9.208 -0.452
-23.564 -9.297 -0.456
-22.733 -9.05 -0.433
-21.766 -8.823 -0.408
-21.825 -8.927 -0.41
-21.764 -8.982 -0.409
-21.595 -8.992 -0.405
-23.518 -9.882 -0.461
-22.808 -9.625 -0.441
-21.535 -9.166 -0.406
-21.609 -9.278 -0.409
-21.629 -9.367 -0.41
-22.792 -9.957 -0.444
-23.322 -10.277 -0.46
-21.042 -9.348 -0.396
-20.988 -9.364 -0.395
-20.799 -9.358 -0.39
-20.782 -9.429 -0.39
-21.341 -9.764 -0.407
-20.074 -9.26 -0.372
-20.509 -9.539 -0.385
-20.412 -9.572 -0.383
-20.088 -9.458 -0.374
-20.684 -9.819 -0.392
-21.122 -10.109 -0.406
-20.822 -10.046 -0.398
-20.568 -10.002 -0.392
-20.288 -9.945 -0.384
-20.447 -10.103 -0.39
-20.732 -10.285 -0.399
-20.303 -10.151 -0.387
-20.224 -10.191 -0.386
-19.998 -10.156 -0.38
-19.902 -10.186 -0.378
-19.73 -10.175 -0.374
-19.547 -10.159 -0.37
-22.28 -11.628 -0.451
-22.226 -11.689 -0.45
-22.097 -11.71 -0.447
-21.406 -11.429 -0.428
-21.511 -11.572 -0.432
-25.766 -13.972 -0.56
-21.631 -11.813 -0.438
-26.256 -14.398 -0.576
-27.86 -15.394 -0.625
-20.919 -11.637 -0.42
-20.745 -11.626 -0.415
-20.684 -11.677 -0.415
-20.612 -11.722 -0.414
-22.887 -13.114 -0.483
-22.837 -13.181 -0.483
-22.802 -13.209 -0.482
-20.508 -11.963 -0.414
-20.527 -12.061 -0.416
-20.465 -12.111 -0.415
-20.429 -12.176 -0.415
-20.279 -12.174 -0.412
-19.608 -11.854 -0.393
-19.595 -11.888 -0.393
-19.62 -11.988 -0.395
-19.504 -12.001 -0.392
-19.466 -12.062 -0.392
-19.423 -12.12 -0.392
-19.289 -12.12 -0.389
-20.051 -12.689 -0.414
-19.751 -12.542 -0.405
-19.782 -12.649 -0.408
-19.993 -12.873 -0.415
-20.455 -13.262 -0.431
-20.371 -13.299 -0.43
-20.224 -13.294 -0.426
-29.647 -19.636 -0.723
-29.561 -19.713 -0.722
-20.451 -13.675 -0.437
-20.36 -13.707 -0.435
-20.961 -14.208 -0.456
-23.135 -15.791 -0.526
-18.936 -13.095 -0.396
-18.887 -13.148 -0.395
-18.84 -13.16 -0.395
-18.726 -13.168 -0.392
-18.628 -13.186 -0.39
-18.562 -13.227 -0.39
-18.438 -13.226 -0.387
-18.466 -13.334 -0.389
-21.403 -15.563 -0.485
-21.451 -15.65 -0.488
-21.475 -15.771 -0.49
-21.426 -15.839 -0.49
-21.535 -16.025 -0.495
-21.347 -15.989 -0.491
-21.356 -16.101 -0.493
-26.331 -19.99 -0.657
-21.165 -16.114 -0.489
-21.63 -16.576 -0.506
-21.548 -16.621 -0.505
-26.473 -20.56 -0.669
-26.441 -20.669 -0.67
-21.166 -16.646 -0.497
-20.705 -16.442 -0.485
-21.019 -16.799 -0.497
-20.401 -16.41 -0.478
-20.355 -16.479 -0.478
-21.141 -17.227 -0.506
-21.075 -17.283 -0.506
-21.093 -17.409 -0.508
-21.068 -17.445 -0.509
-20.846 -17.371 -0.503
-24.02 -20.149 -0.613
-20.111 -16.973 -0.482
-20.06 -17.038 -0.482
-19.993 -17.089 -0.481
-20.039 -17.238 -0.485
-20.407 -17.611 -0.498
-18.158 -15.767 -0.422
-18.101 -15.817 -0.422
-18.287 -16.082 -0.43
-18.245 -16.147 -0.431
-18.116 -16.134 -0.428
-18.133 -16.252 -0.43
-23.645 -21.404 -0.627
-20.842 -18.983 -0.53
-34.541 -31.682 -1.018
-19.33 -17.827 -0.481
-19.213 -17.83 -0.479
-19.069 -17.809 -0.476
-19.021 -17.819 -0.475
-18.968 -17.882 -0.475
-22.789 -21.627 -0.615
-22.691 -21.67 -0.613
-27.602 -26.534 -0.794
-27.577 -26.678 -0.796
-18.65 -18.144 -0.474
-18.606 -18.215 -0.474
-25.725 -25.278 -0.736
-18.693 -18.474 -0.481
-18.857 -18.754 -0.489
-18.91 -18.925 -0.493
-19.219 -19.357 -0.507
-19.171 -19.43 -0.507
-23.941 -24.427 -0.687
-19.151 -19.718 -0.512
-19.096 -19.785 -0.512
-19.075 -19.888 -0.514
-19.011 -19.946 -0.514
-19.131 -20.199 -0.521
-19.152 -20.35 -0.524
-19.988 -21.441 -0.56
-20.001 -21.59 -0.563
-20.004 -21.731 -0.566
-19.963 -21.823 -0.567
-20.124 -22.139 -0.575
-20.065 -22.214 -0.576
-20.208 -22.443 -0.583
-20.117 -22.484 -0.582
-20.023 -22.52 -0.581
-19.964 -22.597 -0.582
-19.931 -22.703 -0.583
-19.912 -22.826 -0.585
-20.07 -23.154 -0.594
-20.226 -23.408 -0.602
-22.636 -26.37 -0.702
-22.47 -26.343 -0.698
-21.566 -25.443 -0.665
-19.67 -23.351 -0.591
-21.377 -25.544 -0.664
-19.577 -23.539 -0.594
-19.577 -23.615 -0.595
-19.41 -23.563 -0.591
-19.294 -23.573 -0.59
-19.215 -23.627 -0.589
-18.956 -23.459 -0.582
-18.978 -23.638 -0.586
-18.882 -23.67 -0.585
-18.882 -23.823 -0.588
-18.897 -23.92 -0.59
-18.781 -23.927 -0.589
-20.946 -26.864 -0.684
-20.249 -26.137 -0.657
-20.679 -26.867 -0.679
-20.766 -27.157 -0.687
-24.559 -32.23 -0.852
-20.609 -27.216 -0.686
-20.491 -27.238 -0.684
-20.398 -27.292 -0.684
-20.358 -27.417 -0.686
-20.211 -27.399 -0.683
-20.049 -27.359 -0.68
-23.177 -31.844 -0.822
-22.415 -30.897 -0.791
-23.946 -33.23 -0.863
-21.916 -30.611 -0.777
-23.8 -33.469 -0.866
-24.007 -33.986 -0.88
-23.983 -34.18 -0.884
-24.051 -34.507 -0.892
-23.856 -34.342 -0.886
-23.681 -34.319 -0.883
-23.547 -34.355 -0.881
-23.415 -34.395 -0.88
-23.444 -34.67 -0.887
-27.426 -40.844 -1.078
-23.445 -35.146 -0.897
-23.362 -35.141 -0.896
-23.193 -35.126 -0.893
-23.069 -35.179 -0.892
-22.261 -34.178 -0.859
-22.034 -34.063 -0.853
-21.992 -34.233 -0.856
-21.847 -34.243 -0.855
-21.973 -34.561 -0.863
-21.96 -34.782 -0.868
-21.825 -34.81 -0.867
-21.555 -34.621 -0.859
-21.401 -34.615 -0.857
-21.323 -34.732 -0.858
-21.187 -34.754 -0.857
-21.031 -34.743 -0.854
-20.966 -34.759 -0.854
-20.796 -34.724 -0.851
-20.694 -34.801 -0.851
-20.638 -34.957 -0.854
-20.519 -35.006 -0.853
-21.35 -36.688 -0.902
-21.818 -37.63 -0.93
-20.982 -36.451 -0.892
-21.112 -36.945 -0.905
-20.853 -36.759 -0.897
-20.962 -37.224 -0.909
-20.485 -36.645 -0.89
-20.392 -36.749 -0.891
-20.406 -36.911 -0.895
-20.368 -37.117 -0.899
-20.53 -37.694 -0.915
-20.673 -38.242 -0.929
-20.513 -38.232 -0.927
-20.094 -37.735 -0.91
-19.976 -37.798 -0.91
-19.982 -38.1 -0.917
-19.927 -38.14 -0.917
-21.579 -41.626 -1.018
-16.257 -31.589 -0.722
-20.265 -39.696 -0.958
-20.056 -39.594 -0.953
-21.115 -42.015 -1.022
-20.98 -42.076 -1.021
-20.906 -42.093 -1.021
-20.761 -42.131 -1.02
-20.597 -42.132 -1.018
-21.312 -43.947 -1.069
-21.215 -44.1 -1.071
-23.404 -49.05 -1.213
-23.185 -48.986 -1.209
-23.097 -48.999 -1.208
-21.387 -45.738 -1.112
-21.223 -45.762 -1.111
-22.694 -49.346 -1.212
-20.921 -45.863 -1.11
-20.799 -45.98 -1.111
-20.488 -45.673 -1.101
-21.618 -48.398 -1.178
-21.537 -48.627 -1.182
-21.384 -48.694 -1.182
-21.213 -48.721 -1.181
-22.083 -51.159 -1.248
-21.293 -49.756 -1.207
-22.62 -53.324 -1.306
-22.606 -53.527 -1.311
-22.449 -53.623 -1.311
-22.277 -53.684 -1.311
-22.125 -53.797 -1.312
-24.139 -59.229 -1.463
-23.992 -59.4 -1.466
-23.33 -58.287 -1.433
-23.207 -58.244 -1.43
-24.065 -60.956 -1.504
-23.834 -60.931 -1.501
-22.912 -59.118 -1.449
-9.428 -24.513 -0.48
-9.053 -23.758 -0.458
-8.984 -23.801 -0.459
-8.971 -23.88 -0.461
-9.004 -24.199 -0.469
-8.914 -24.428 -0.473
-8.83 -24.435 -0.473
-8.744 -24.436 -0.472
-8.6 -24.273 -0.467
-26.145 -74.327 -1.85
-9.836 -32.405 -0.678
-9.736 -32.442 -0.679
-9.63 -32.459 -0.678
-6.026 -31.964 -0.644
-4.182 -23.351 -0.414
-4.068 -23.134 -0.408
-4.032 -23.138 -0.408
-3.841 -22.891 -0.401
-3.762 -22.861 -0.399
-3.696 -22.91 -0.4
-3.651 -23.09 -0.405
-3.603 -23.261 -0.409
-3.581 -23.364 -0.412
-3.528 -23.515 -0.415
-3.364 -22.907 -0.399
-3.293 -22.921 -0.399
-2.913 -20.724 -0.341
-2.679 -19.491 -0.308
-2.814 -20.975 -0.347
-2.566 -19.344 -0.304
-2.693 -20.812 -0.343
-2.464 -19.517 -0.308
-2.387 -19.392 -0.305
-2.352 -19.619 -0.311
-2.287 -19.595 -0.31
-2.195 -19.332 -0.303
-2.153 -19.234 -0.3
-2.101 -19.314 -0.302
-2.17 -20.563 -0.334
-2.106 -20.584 -0.335
-2.052 -20.698 -0.338
-1.92 -19.996 -0.319
-1.851 -19.93 -0.317
-1.812 -19.851 -0.315
-1.754 -19.913 -0.317
-1.621 -19.073 -0.294
-1.566 -19.138 -0.296
-1.519 -19.312 -0.3
-1.523 -20.184 -0.323
-1.426 -19.716 -0.311
-1.391 -19.663 -0.309
-1.368 -20.253 -0.325
-1.247 -19.356 -0.301
-1.171 -19.1 -0.294
-1.113 -19.136 -0.295
-1.07 -19.462 -0.304
-1.008 -19.45 -0.303
-0.932 -19.143 -0.295
-0.906 -19.221 -0.297
-0.852 -19.389 -0.301
-0.794 -19.458 -0.303
-0.639 -16.869 -0.235
-0.705 -20.455 -0.329
-0.637 -20.326 -0.326
-0.604 -20.297 -0.325
-0.541 -20.328 -0.326
-0.482 -20.546 -0.331
-0.415 -20.429 -0.328
-0.353 -20.598 -0.333
-0.288 -20.566 -0.332
-0.224 -20.562 -0.332
-0.192 -20.693 -0.335
-0.128 -20.773 -0.337
-0.059 -18.528 -0.278
-0 -18.524 -0.278
0.057 -18.394 -0.275
0.148 -22.714 -0.388
0.184 -19.461 -0.303
0.216 -19.555 -0.305
0.28 -19.684 -0.309
0.222 -13.296 -0.142
0.259 -13.08 -0.136
0.3 -13.083 -0.137
0.344 -13.168 -0.139
0.384 -13.124 -0.138
0.424 -13.075 -0.136
0.449 -13.216 -0.14
0.485 -13.069 -0.136
0.525 -13.046 -0.136
0.582 -13.403 -0.145
0.606 -13.014 -0.135
0.639 -12.868 -0.131
0.662 -12.917 -0.133
0.721 -13.24 -0.141
0.772 -13.396 -0.145
0.784 -12.918 -0.133
0.815 -12.762 -0.129
0.858 -12.809 -0.13
0.96 -13.664 -0.152
0.931 -12.971 -0.134
0.993 -13.247 -0.142
1.059 -13.549 -0.15
1.071 -13.179 -0.14
1.15 -13.603 -0.151
1.188 -13.554 -0.15
1.171 -12.483 -0.122
1.508 -15.733 -0.207
1.235 -12.526 -0.123
1.271 -12.486 -0.123
1.309 -12.474 -0.122
1.34 -12.398 -0.12
1.377 -12.37 -0.12
1.42 -12.407 -0.121
1.43 -12.32 -0.119
1.459 -12.24 -0.117
1.473 -12.037 -0.111
1.537 -12.24 -0.117
1.558 -12.1 -0.113
1.586 -12.022 -0.111
1.618 -11.976 -0.11
1.638 -11.979 -0.111
1.68 -12.007 -0.111
1.996 -13.612 -0.154
2.038 -13.602 -0.154
2.063 -13.483 -0.151
2.103 -13.459 -0.15
2.706 -17.1 -0.247
1.996 -12.405 -0.123
2.027 -12.351 -0.122
2.222 -13.263 -0.146
2.256 -13.217 -0.145
2.135 -12.284 -0.12
2.173 -12.271 -0.12
2.2 -12.311 -0.121
2.28 -12.315 -0.122
1.892 -10.065 -0.062
3.581 -18.611 -0.289
2.43 -12.466 -0.126
2.451 -12.364 -0.124
2.458 -12.301 -0.122
2.495 -12.285 -0.122
1.999 -9.714 -0.054
2.025 -9.686 -0.053
2.056 -9.681 -0.053
2.069 -9.597 -0.051
2.04 -9.325 -0.044
1.947 -8.839 -0.031
1.98 -8.853 -0.032
2.004 -8.831 -0.031
2.78 -12.031 -0.117
2.821 -12.038 -0.118
2.861 -12.039 -0.118
2.858 -11.863 -0.113
3.081 -12.691 -0.136
3.087 -12.546 -0.132
3.128 -12.542 -0.132
3.149 -12.458 -0.13
3.311 -12.925 -0.143
3.384 -13.038 -0.147
3.282 -12.488 -0.132
3.31 -12.514 -0.133
3.16 -11.658 -0.11
3.202 -11.669 -0.111
2.654 -9.57 -0.054
2.684 -9.564 -0.054
2.717 -9.565 -0.055
2.724 -9.532 -0.054
3.31 -11.427 -0.105
3.366 -11.485 -0.107
3.395 -11.45 -0.107
3.581 -11.937 -0.12
4.01 -13.204 -0.155
6.94 -22.536 -0.41
2.778 -8.923 -0.039
2.791 -8.869 -0.038
3.901 -12.227 -0.13
3.89 -12.063 -0.126
3.951 -12.123 -0.128
4.005 -12.158 -0.129
4.041 -12.202 -0.13
4.07 -12.163 -0.13
4.106 -12.143 -0.13
3.995 -11.697 -0.118
4.156 -12.041 -0.127
4.169 -11.958 -0.126
4.287 -12.171 -0.132
4.374 -12.355 -0.137
5.595 -15.626 -0.228
4.369 -12.1 -0.131
4.406 -12.084 -0.131
5.703 -15.467 -0.225
4.083 -10.989 -0.101
4.112 -10.963 -0.101
4.139 -10.982 -0.101
4.17 -10.96 -0.101
4.119 -10.725 -0.095
4.158 -10.727 -0.095
4.177 -10.675 -0.094
4.246 -10.752 -0.097
4.255 -10.676 -0.095
4.272 -10.671 -0.095
4.319 -10.691 -0.096
4.405 -10.805 -0.1
4.909 -11.925 -0.132
4.954 -11.928 -0.132
5.155 -12.3 -0.143
4.766 -11.279 -0.115
4.665 -10.994 -0.107
4.496 -10.505 -0.093
4.664 -10.803 -0.102
4.572 -10.5 -0.094
4.575 -10.418 -0.092
4.622 -10.435 -0.093
5.105 -11.423 -0.122
5.037 -11.224 -0.116
4.829 -10.673 -0.101
5.016 -10.994 -0.11
5.432 -11.802 -0.134
5.533 -11.923 -0.138
4.947 -10.579 -0.1
4.948 -10.497 -0.098
4.868 -10.285 -0.092
4.884 -10.235 -0.091
4.909 -10.205 -0.091
4.919 -10.145 -0.089
4.943 -10.113 -0.089
5.02 -10.189 -0.091
5.045 -10.159 -0.091
4.992 -10.013 -0.087
5.098 -10.067 -0.09
9.488 -18.543 -0.338
9.536 -18.494 -0.338
9.608 -18.49 -0.339
9.673 -18.472 -0.339
7.431 -14.151 -0.212
7.474 -14.124 -0.212
7.505 -14.075 -0.211
7.571 -14.092 -0.212
9.224 -17.028 -0.3
9.224 -16.903 -0.297
30.185 -54.78 -1.426
30.328 -54.835 -1.429
7.386 -13.199 -0.19
7.397 -13.122 -0.188
7.444 -13.109 -0.188
7.51 -13.129 -0.19
7.581 -13.157 -0.191
12.398 -21.405 -0.44
7.586 -13.023 -0.188
7.629 -13.003 -0.188
8.11 -13.721 -0.211
8.144 -13.68 -0.21
7.905 -13.185 -0.196
8.295 -13.737 -0.214
7.703 -12.625 -0.181
7.957 -12.948 -0.192
7.832 -12.656 -0.183
7.829 -12.564 -0.181
13.596 -21.632 -0.462
13.635 -21.543 -0.46
8.024 -12.566 -0.184
8.052 -12.524 -0.184
8.726 -13.474 -0.214
8.77 -13.45 -0.214
8.815 -13.426 -0.214
8.868 -13.415 -0.215
6.205 -9.368 -0.088
6.25 -9.372 -0.089
8.66 -12.881 -0.2
8.69 -12.839 -0.2
6.395 -9.397 -0.092
8.935 -13.023 -0.207
17.693 -25.569 -0.606
9.135 -13.091 -0.212
9.154 -13.031 -0.211
13.83 -19.534 -0.419
9.156 -12.863 -0.207
7.78 -10.864 -0.144
7.529 -10.446 -0.131
7.52 -10.398 -0.13
7.547 -10.368 -0.13
7.652 -10.442 -0.133
7.574 -10.269 -0.128
7.718 -10.394 -0.133
7.85 -10.503 -0.137
7.926 -10.535 -0.139
7.895 -10.459 -0.137
7.467 -9.83 -0.117
7.493 -9.8 -0.117
8.51 -11.053 -0.159
8.561 -11.047 -0.16
8.574 -10.993 -0.159
8.001 -10.195 -0.133
8.015 -10.18 -0.133
8.027 -10.129 -0.132
8.891 -11.143 -0.167
9.49 -11.816 -0.19
8.467 -10.479 -0.147
8.339 -10.255 -0.14
7.87 -9.619 -0.119
7.885 -9.576 -0.119
8.661 -10.48 -0.15
9.935 -11.94 -0.2
9.972 -11.907 -0.2
10.008 -11.875 -0.2
10.059 -11.86 -0.201
10.139 -11.878 -0.203
19.089 -22.187 -0.559
11.962 -13.874 -0.273
11.719 -13.507 -0.262
11.791 -13.503 -0.263
19.637 -22.322 -0.571
19.305 -21.807 -0.555
19.323 -21.689 -0.553
19.331 -21.562 -0.55
19.605 -21.797 -0.56
20.55 -22.703 -0.594
13.682 -15.033 -0.325
13.698 -14.957 -0.324
13.687 -14.85 -0.322
9.491 -10.245 -0.159
9.488 -10.21 -0.159
9.561 -10.223 -0.16
9.55 -10.084 -0.157
9.556 -10.027 -0.156
10.848 -11.307 -0.204
10.828 -11.215 -0.202
10.549 -10.893 -0.191
10.524 -10.799 -0.188
10.158 -10.36 -0.174
10.166 -10.303 -0.173
10.194 -10.266 -0.173
9.982 -9.992 -0.164
10.423 -10.365 -0.179
10.333 -10.212 -0.174
9.999 -9.853 -0.161
10.505 -10.285 -0.179
9.795 -9.532 -0.152
9.824 -9.5 -0.152
9.877 -9.491 -0.152
10.312 -9.846 -0.167
10.096 -9.58 -0.158
10.172 -9.622 -0.16
10.326 -9.706 -0.165
10.386 -9.701 -0.166
10.56 -9.801 -0.171
10.734 -9.899 -0.176
10.543 -9.663 -0.168
10.876 -9.904 -0.179
10.862 -9.86 -0.178
10.942 -9.87 -0.18
11.001 -9.861 -0.181
11.008 -9.805 -0.18
11.088 -9.814 -0.181
11.16 -9.815 -0.183
11.077 -9.712 -0.179
10.502 -9.151 -0.159
10.729 -9.289 -0.165
11.066 -9.52 -0.176
10.524 -8.997 -0.156
10.497 -8.918 -0.154
11.24 -9.486 -0.179
11.299 -9.475 -0.18
11.37 -9.504 -0.182
11.252 -9.346 -0.177
11.33 -9.35 -0.178
11.216 -9.198 -0.174
11.512 -9.379 -0.182
11.366 -9.201 -0.177
11.236 -9.038 -0.171
11.306 -9.065 -0.173
11.289 -8.994 -0.172
11.281 -8.93 -0.17
11.306 -8.892 -0.17
11.441 -8.94 -0.174
11.543 -8.961 -0.176
12.637 -9.744 -0.211
12.684 -9.748 -0.212
12.703 -9.7 -0.212
12.796 -9.707 -0.214
14.483 -10.911 -0.268
14.549 -10.889 -0.269
14.586 -10.845 -0.269
14.833 -10.956 -0.276
14.845 -10.929 -0.276
14.902 -10.899 -0.277
14.946 -10.859 -0.277
16.841 -12.152 -0.337
16.822 -12.058 -0.335
16.844 -11.994 -0.334
15.069 -10.698 -0.277
16.944 -11.945 -0.336
15.074 -10.559 -0.275
15.148 -10.54 -0.277
15.127 -10.455 -0.275
15.174 -10.418 -0.275
13.039 -8.836 -0.206
13.061 -8.822 -0.206
13.056 -8.758 -0.205
13.083 -8.717 -0.205
13.094 -8.665 -0.205
13.107 -8.615 -0.204
13.119 -8.564 -0.204
13.156 -8.529 -0.204
13.141 -8.49 -0.203
13.166 -8.448 -0.203
13.176 -8.396 -0.203
13.187 -8.345 -0.202
13.208 -8.3 -0.202
13.246 -8.266 -0.202
13.236 -8.202 -0.201
13.254 -8.185 -0.201
13.254 -8.127 -0.201
13.29 -8.092 -0.201
13.291 -8.036 -0.2
13.323 -7.998 -0.2
13.293 -7.923 -0.199
13.316 -7.88 -0.199
15.371 -9.06 -0.261
15.408 -9.016 -0.261
15.44 -8.97 -0.261
15.487 -8.932 -0.261
15.566 -8.912 -0.263
15.656 -8.899 -0.265
35.737 -20.126 -0.865
36.035 -20.219 -0.873
35.597 -19.827 -0.858
17.279 -9.569 -0.31
37.604 -20.635 -0.914
37.885 -20.634 -0.92
37.983 -20.533 -0.921
17.517 -8.717 -0.305
17.596 -8.688 -0.307
56.753 -27.734 -1.443
56.75 -27.512 -1.44
56.82 -27.436 -1.441
56.596 -27.109 -1.432
56.48 -26.836 -1.426
56.578 -26.665 -1.426
56.97 -26.414 -1.433
56.983 -26.203 -1.431
56.983 -26.094 -1.43
56.901 -25.841 -1.425
56.934 -25.64 -1.424
56.803 -25.367 -1.418
55.139 -24.418 -1.368
55.132 -24.207 -1.366
55.162 -24.014 -1.364
55.361 -23.997 -1.369
55.353 -23.788 -1.366
55.227 -23.528 -1.361
55.354 -23.377 -1.362
56.536 -23.667 -1.394
56.133 -23.292 -1.38
55.709 -22.911 -1.366
55.841 -22.863 -1.369
55.716 -22.607 -1.363
59.189 -23.799 -1.459
59.338 -23.642 -1.461
59.669 -23.557 -1.468
59.864 -23.417 -1.472
56.696 -21.974 -1.381
59.496 -22.95 -1.458
56.723 -21.678 -1.379
56.923 -21.549 -1.383
57.232 -21.461 -1.389
57.299 -21.281 -1.389
57.381 -21.106 -1.39
60.738 -22.015 -1.48
27.352 -9.302 -0.549
27.755 -9.341 -0.559
27.566 -9.182 -0.553
27.488 -9.06 -0.55
27.674 -8.929 -0.554
27.704 -8.842 -0.554
38.902 -9.245 -0.838
38.923 -9.121 -0.838
38.973 -9.003 -0.838
38.86 -8.785 -0.834
50.06 -9.26 -1.123
50.135 -9.192 -1.125
50.19 -9.039 -1.125
50.147 -8.869 -1.123
47.923 -8.322 -1.064
47.752 -8.138 -1.059
39.291 -6.004 -0.832
39.282 -5.876 -0.831
39.304 -5.754 -0.831
39.389 -5.64 -0.833
55.357 -7.826 -1.253
57.964 -8.008 -1.321
58.494 -7.894 -1.335
59.799 -7.878 -1.368
59.931 -7.704 -1.371
55.767 -6.993 -1.261
55.78 -6.817 -1.261
51.332 -6.03 -1.143
51.285 -5.861 -1.141
51.264 -5.695 -1.14
51.196 -5.525 -1.138
51.135 -5.356 -1.136
61.508 -5.365 -1.405
77.278 -6.489 -1.818
64.879 5.328 -1.879
63.82 5.444 -1.846
48.275 5.964 -1.353
62.856 12.11 -1.844
61.773 12.003 -1.81
60.858 12.024 -1.781
59.932 12.037 -1.752
59.06 12.055 -1.725
58.176 12.066 -1.697
57.359 12.085 -1.672
56.697 12.132 -1.651
56.495 12.181 -1.645
55.939 12.246 -1.628
55.193 12.265 -1.605
53.77 12.304 -1.561
53.607 12.444 -1.557
51.508 13.331 -1.499
48.991 13.339 -1.421
48.2 14.023 -1.402
48.191 14.185 -1.403
48.169 14.343 -1.404
61.141 19.143 -1.846
60.593 19.181 -1.83
60.191 19.262 -1.818
59.824 19.352 -1.808
59.756 21.214 -1.825
59.333 21.275 -1.813
58.62 23.015 -1.811
58.273 22.985 -1.801
57.803 23.01 -1.787
57.067 22.925 -1.764
56.429 22.875 -1.745
56.157 22.971 -1.738
55.992 23.109 -1.734
55.639 23.168 -1.725
55.75 23.317 -1.73
55.614 23.466 -1.728
54.096 23.026 -1.677
53.882 23.136 -1.672
53.187 23.036 -1.651
52.53 22.948 -1.63
52.207 23.002 -1.622
51.85 22.943 -1.61
51.555 23.006 -1.603
29.31 13.202 -0.825
29.097 13.217 -0.819
28.85 13.214 -0.811
28.6 13.209 -0.804
28.395 13.222 -0.798
28.207 13.189 -0.792
28.003 13.201 -0.787
27.79 13.208 -0.78
27.186 13.026 -0.76
27.137 13.108 -0.76
27.094 13.192 -0.76
26.896 13.201 -0.755
26.967 13.288 -0.758
27.166 14.793 -0.786
27.037 14.833 -0.783
36.822 22.35 -1.174
36.615 22.382 -1.169
36.484 22.46 -1.167
36.217 22.453 -1.16
36.011 22.482 -1.154
35.647 22.333 -1.142
35.659 22.497 -1.145
35.529 22.572 -1.143
35.029 22.409 -1.127
34.738 22.377 -1.118
34.537 22.401 -1.113
34.372 22.449 -1.11
34.32 22.492 -1.109
34.061 22.475 -1.102
33.93 22.542 -1.099
30.749 20.571 -0.98
30.54 20.571 -0.974
30.346 20.579 -0.969
30.138 20.576 -0.964
29.97 20.531 -0.958
29.764 20.528 -0.953
29.568 20.53 -0.948
29.382 20.538 -0.943
28.835 20.564 -0.929
28.666 20.511 -0.924
28.482 20.515 -0.919
28.307 20.524 -0.915
28.106 20.514 -0.909
28.003 20.574 -0.908
27.972 20.687 -0.909
28 20.844 -0.913
28.023 20.998 -0.916
28.124 21.142 -0.922
28.104 21.266 -0.924
28.129 21.424 -0.927
26.455 20.283 -0.863
26.301 20.296 -0.859
26.153 20.314 -0.856
25.99 20.318 -0.852
25.854 20.278 -0.847
25.699 20.287 -0.844
25.545 20.296 -0.84
25.37 20.287 -0.835
25.203 20.284 -0.831
25.052 20.293 -0.828
24.924 20.254 -0.824
24.781 20.268 -0.82
24.617 20.263 -0.816
24.47 20.272 -0.813
24.308 20.267 -0.809
24.16 20.272 -0.805
24 20.267 -0.801
23.89 20.239 -0.798
23.744 20.244 -0.794
23.583 20.235 -0.79
23.432 20.233 -0.787
23.371 20.309 -0.787
23.187 20.278 -0.782
23.057 20.292 -0.779
22.943 20.256 -0.775
22.792 20.251 -0.771
22.658 20.26 -0.768
22.525 20.268 -0.765
22.385 20.27 -0.762
22.256 20.281 -0.759
22.12 20.285 -0.756
21.987 20.291 -0.753
21.891 20.266 -0.75
21.772 20.283 -0.748
21.67 20.315 -0.746
21.571 20.35 -0.745
21.518 20.429 -0.745
21.473 20.515 -0.746
21.424 20.597 -0.747
21.422 20.66 -0.748
21.393 20.762 -0.75
21.379 20.879 -0.752
21.339 20.971 -0.753
21.329 21.093 -0.756
21.318 21.215 -0.758
16.234 16.266 -0.531
13.207 13.282 -0.395
13.098 13.255 -0.392
13.016 13.255 -0.39
12.935 13.256 -0.388
12.858 13.261 -0.387
12.773 13.257 -0.385
12.71 13.274 -0.384
12.636 13.239 -0.381
12.57 13.252 -0.38
12.491 13.252 -0.379
12.412 13.252 -0.377
12.337 13.255 -0.375
12.269 13.265 -0.374
12.185 13.258 -0.372
12.144 13.255 -0.371
12.111 13.302 -0.371
12.059 13.33 -0.371
12.023 13.374 -0.371
11.998 13.431 -0.372
11.965 13.479 -0.372
11.95 13.548 -0.374
11.944 13.583 -0.375
11.934 13.658 -0.376
11.921 13.73 -0.378
11.887 13.778 -0.378
11.913 13.896 -0.381
19.712 23.335 -0.773
19.634 23.391 -0.773
19.583 23.48 -0.774
19.506 23.537 -0.774
19.663 23.879 -0.786
19.449 23.77 -0.779
19.249 23.678 -0.772
19.068 23.683 -0.769
18.93 23.663 -0.766
18.784 23.633 -0.762
18.983 24.037 -0.776
17.955 22.885 -0.727
17.824 22.866 -0.724
17.599 22.651 -0.714
17.619 22.824 -0.719
17.471 22.78 -0.714
17.724 23.26 -0.732
17.704 23.386 -0.734
18.441 24.518 -0.778
16.969 22.711 -0.703
17.049 22.968 -0.711
16.726 22.608 -0.696
17.288 23.52 -0.73
17.235 23.603 -0.731
17.577 24.229 -0.754
16.458 22.84 -0.697
16.765 23.42 -0.717
16.809 23.639 -0.724
17.56 24.775 -0.768
17.573 24.959 -0.773
17.584 25.142 -0.778
17.26 24.844 -0.764
23.211 33.845 -1.109
23.584 34.622 -1.136
15.655 23.075 -0.688
15.868 23.547 -0.704
15.743 23.522 -0.702
15.642 23.529 -0.7
14.412 21.831 -0.633
14.315 21.833 -0.631
14.215 21.831 -0.629
14.154 21.811 -0.628
14.054 21.807 -0.626
13.952 21.799 -0.624
13.86 21.805 -0.623
13.76 21.8 -0.621
13.672 21.813 -0.62
13.595 21.842 -0.619
13.575 21.885 -0.62
13.5 21.918 -0.62
13.336 21.805 -0.614
13.292 21.888 -0.615
13.501 22.389 -0.632
13.54 22.613 -0.639
13.375 22.498 -0.633
13.601 22.959 -0.65
13.202 22.447 -0.629
13.22 22.64 -0.635
13.09 22.581 -0.631
13.035 22.65 -0.632
12.976 22.712 -0.633
12.986 22.895 -0.638
12.983 22.974 -0.64
12.918 23.027 -0.641
12.814 23.012 -0.639
12.756 23.078 -0.64
12.686 23.122 -0.64
12.692 23.307 -0.645
12.79 23.661 -0.657
12.802 23.863 -0.662
12.805 23.959 -0.665
12.142 22.893 -0.625
12.065 22.922 -0.625
10.546 20.195 -0.525
10.47 20.205 -0.524
10.374 20.176 -0.522
10.304 20.194 -0.521
10.258 20.184 -0.52
10.181 20.189 -0.519
10.099 20.183 -0.518
10.028 20.199 -0.517
9.955 20.212 -0.517
9.875 20.209 -0.516
9.782 20.179 -0.513
9.723 20.139 -0.511
9.823 20.51 -0.523
9.746 20.514 -0.523
9.66 20.499 -0.521
9.61 20.56 -0.522
9.507 20.507 -0.519
9.438 20.527 -0.519
9.392 20.511 -0.518
9.048 20.094 -0.501
8.926 19.991 -0.496
8.842 19.972 -0.495
8.765 19.968 -0.494
8.691 19.968 -0.493
8.588 19.904 -0.489
8.542 19.882 -0.488
8.528 20.023 -0.492
8.496 20.123 -0.495
8.506 20.323 -0.501
8.483 20.449 -0.504
8.485 20.637 -0.51
8.489 20.832 -0.516
12.92 31.811 -0.895
12.742 31.659 -0.888
12.566 31.508 -0.881
12.437 31.471 -0.879
12.3 31.411 -0.875
12.333 31.789 -0.887
12.211 31.623 -0.881
12.958 33.868 -0.956
9.482 25.038 -0.653
9.405 25.073 -0.653
9.35 25.166 -0.655
9.106 24.747 -0.64
9.343 25.637 -0.669
8.917 24.713 -0.637
8.6 23.955 -0.61
8.493 23.891 -0.607
8.43 23.952 -0.608
8.427 24.185 -0.615
8.511 24.675 -0.631
8.459 24.775 -0.634
7.918 23.436 -0.587
7.866 23.403 -0.586
8.197 24.642 -0.627
8.145 24.743 -0.629
8.202 25.181 -0.643
6.339 19.689 -0.458
6.257 19.648 -0.456
6.178 19.612 -0.454
6.135 19.582 -0.452
6.072 19.597 -0.452
6.005 19.599 -0.452
5.941 19.608 -0.451
5.876 19.617 -0.451
5.807 19.61 -0.45
5.743 19.619 -0.45
5.706 19.609 -0.449
5.637 19.6 -0.448
5.57 19.6 -0.448
5.51 19.623 -0.448
5.439 19.606 -0.447
5.377 19.621 -0.447
5.306 19.605 -0.446
5.24 19.606 -0.445
5.207 19.606 -0.445
5.143 19.613 -0.445
5.074 19.6 -0.444
5.011 19.608 -0.443
4.944 19.604 -0.443
4.88 19.61 -0.442
4.813 19.604 -0.442
4.838 19.839 -0.449
4.789 20.186 -0.46
4.62 19.753 -0.445
4.539 19.686 -0.442
4.524 19.903 -0.449
4.512 20.143 -0.456
4.554 20.48 -0.467
4.502 20.55 -0.469
4.448 20.611 -0.471
3.62 19.603 -0.434
3.559 19.614 -0.434
3.512 19.531 -0.431
3.462 19.607 -0.433
3.573 20.604 -0.465
3.555 20.893 -0.474
3.486 20.883 -0.473
3.47 21.191 -0.483
2.584 19.645 -0.43
2.521 19.641 -0.429
2.459 19.649 -0.429
2.588 21.208 -0.479
2.518 21.185 -0.478
2.307 20.233 -0.447
2.276 20.53 -0.457
-4.929 72.628 -2.126
-5.156 72.588 -2.125
-5.361 72.263 -2.115
-5.593 72.309 -2.117
-5.698 72.199 -2.114
-5.942 72.388 -2.12
-5.98 70.14 -2.049
-6.21 70.224 -2.052
-6.47 70.645 -2.066
-6.285 66.311 -1.928
-6.634 67.734 -1.974
-6.597 66.277 -1.927
-6.825 66.451 -1.934
-7.023 66.328 -1.93
-7.106 65.151 -1.893
-7.301 65.037 -1.89
-7.553 65.43 -1.904
-7.482 63.068 -1.828
-7.621 63.385 -1.839
-7.805 63.246 -1.835
-7.573 59.806 -1.725
-7.755 59.738 -1.724
-7.963 59.866 -1.729
-8.186 60.097 -1.737
-8.395 60.217 -1.742
-8.504 60.305 -1.745
-8.81 61.087 -1.771
-8.907 60.416 -1.75
-9.193 61.027 -1.771
-9.172 59.614 -1.726
-9.556 60.839 -1.767
-9.702 60.529 -1.758
-9.761 60.286 -1.75
-9.972 60.391 -1.755
-10.15 60.291 -1.753
-10.34 60.263 -1.753
-11.342 64.889 -1.904
-9.942 55.825 -1.611
-10.136 55.894 -1.614
-10.32 55.909 -1.615
-11.974 64.326 -1.89
-12.351 65.213 -1.92
-12.813 66.509 -1.964
-11.187 57.087 -1.658
-10.348 51.928 -1.49
-10.52 51.937 -1.492
-10.904 52.982 -1.527
-11.02 53.124 -1.532
-10.982 52.111 -1.5
-10.924 51.042 -1.466
-11.069 50.935 -1.464
-11.283 51.144 -1.472
-11.455 51.159 -1.474
-11.66 51.318 -1.48
-11.746 51.327 -1.481
-12.341 53.159 -1.542
-12.146 50.862 -1.469
-12.314 50.86 -1.471
-12.501 50.93 -1.474
-12.77 51.329 -1.489
-12.781 50.693 -1.469
-12.967 51.094 -1.483
-13.127 51.049 -1.483
-13.155 50.499 -1.466
-13.273 50.304 -1.461
-13.412 50.191 -1.458
-14.264 52.721 -1.544
-14.375 52.475 -1.537
-14.061 51.013 -1.489
-14.265 51.125 -1.494
-14.49 51.308 -1.502
-14.813 51.832 -1.521
-15.203 52.572 -1.547
-17.792 60.119 -1.802
-18.142 60.258 -1.81
-16.003 46.444 -1.368
-10.852 24.702 -0.659
-10.595 23.911 -0.633
-10.663 23.962 -0.635
-10.596 23.611 -0.624
-10.673 23.583 -0.624
-10.42 22.832 -0.599
-10.947 23.79 -0.634
-11.105 23.936 -0.64
-10.883 23.264 -0.618
-10.974 23.363 -0.622
-11.323 23.912 -0.642
-11.384 23.847 -0.641
-11.338 23.559 -0.632
-11.404 23.507 -0.632
-10.937 22.363 -0.592
-11.014 22.342 -0.593
-11.071 22.368 -0.594
-11.135 22.323 -0.594
-11.218 22.312 -0.595
-11.296 22.293 -0.596
-11.366 22.258 -0.596
-11.43 22.209 -0.595
-11.541 22.253 -0.598
-11.668 22.327 -0.602
-11.632 22.172 -0.597
-11.664 22.065 -0.594
-11.77 22.097 -0.597
-11.841 22.063 -0.597
-11.96 22.119 -0.6
-12.109 22.227 -0.606
-12.196 22.221 -0.607
-12.406 22.52 -0.619
-12.212 22.002 -0.601
-12.234 21.88 -0.598
-12.297 21.831 -0.598
-12.5 22.03 -0.606
-12.699 22.218 -0.615
-12.76 22.163 -0.614
-12.841 22.222 -0.617
-13.02 22.37 -0.624
-13.136 22.409 -0.627
-13.124 22.226 -0.622
-13.173 22.15 -0.62
-13.251 22.123 -0.621
-15.482 25.672 -0.755
-13.705 22.481 -0.638
-14.487 23.598 -0.682
-14.38 23.258 -0.671
-13.959 22.418 -0.641
-13.982 22.298 -0.638
-14.118 22.359 -0.642
-14.597 22.959 -0.666
-14.419 22.601 -0.654
-14.469 22.522 -0.652
-14.518 22.443 -0.651
-14.635 22.469 -0.654
-14.726 22.455 -0.655
-14.801 22.415 -0.655
-15.865 23.866 -0.713
-15.025 22.523 -0.662
-15.905 23.683 -0.709
-15.957 23.6 -0.707
-15.932 23.404 -0.702
-15.529 22.657 -0.675
-15.607 22.618 -0.675
-15.493 22.302 -0.665
-16.351 23.382 -0.709
-16.642 23.72 -0.723
-16.748 23.712 -0.725
-16.875 23.734 -0.728
-16.939 23.666 -0.727
-16.773 23.279 -0.714
-16.814 23.182 -0.712
-16.859 23.09 -0.711
-16.999 23.206 -0.716
-17.097 23.186 -0.718
-17.073 23.002 -0.712
-17.04 22.807 -0.707
-17.115 22.759 -0.707
-17.138 22.641 -0.704
-17.329 22.744 -0.711
-17.364 22.716 -0.711
-17.414 22.634 -0.71
-17.506 22.606 -0.711
-17.56 22.529 -0.71
-15.837 20.184 -0.617
-15.877 20.104 -0.616
-15.93 20.041 -0.615
-15.988 19.985 -0.615
-18.015 22.452 -0.717
-18.081 22.389 -0.717
-18.188 22.377 -0.719
-18.774 22.951 -0.745
-18.546 22.528 -0.73
-19.097 23.05 -0.754
-19.059 22.858 -0.748
-18.616 22.254 -0.724
-18.996 22.564 -0.74
-19.353 22.843 -0.754
-19.378 22.727 -0.752
-19.403 22.612 -0.749
-19.453 22.527 -0.748
-19.491 22.428 -0.747
-19.581 22.46 -0.749
-19.646 22.393 -0.749
-19.677 22.286 -0.747
-19.736 22.212 -0.747
-19.808 22.153 -0.747
-19.91 22.126 -0.748
-19.87 21.942 -0.743
-19.911 21.918 -0.743
-19.944 21.817 -0.742
-20.409 22.186 -0.76
-20.772 22.439 -0.774
-20.906 22.442 -0.777
-20.963 22.362 -0.777
-21.144 22.413 -0.782
-22.625 23.91 -0.849
-22.507 23.636 -0.84
-22.294 23.265 -0.827
-22.468 23.3 -0.832
-23.277 23.989 -0.865
-21.7 22.221 -0.79
-23.441 23.856 -0.866
-23.563 23.831 -0.868
-23.598 23.791 -0.868
-23.866 23.911 -0.877
-22.889 22.787 -0.829
-22.843 22.598 -0.824
-22.885 22.498 -0.823
-22.966 22.436 -0.823
-23.039 22.367 -0.823
-23.087 22.343 -0.824
-23.146 22.259 -0.823
-23.35 22.315 -0.829
-24.377 23.152 -0.872
-30.959 29.045 -1.154
-31.161 29.051 -1.159
-31.307 29.003 -1.162
-32.173 29.713 -1.197
-33.103 30.381 -1.234
-33.168 30.249 -1.232
-33.088 29.986 -1.225
-32.993 29.712 -1.217
-33.127 29.644 -1.218
-32.069 28.515 -1.169
-32.403 28.722 -1.182
-32.379 28.52 -1.177
-32.461 28.411 -1.176
-32.754 28.486 -1.185
-32.843 28.383 -1.185
-33.04 28.372 -1.19
-33.103 28.246 -1.188
-33.147 28.194 -1.188
-34.328 29.015 -1.234
-34.418 28.905 -1.234
-34.564 28.843 -1.237
-38.47 31.699 -1.391
-38.611 31.612 -1.393
-40.543 31.527 -1.439
-41.706 32.222 -1.483
-41.921 32.179 -1.487
-41.244 31.248 -1.452
-41.436 31.189 -1.456
-41.52 30.947 -1.453
-41.601 30.804 -1.452
-41.536 30.555 -1.446
-29.75 21.732 -0.975
-29.766 21.6 -0.973
-29.839 21.51 -0.973
-27.247 19.509 -0.868
-27.242 19.441 -0.867
-27.332 19.376 -0.868
-27.46 19.337 -0.871
-27.548 19.271 -0.872
-27.845 19.348 -0.881
-40.854 28.213 -1.385
-52.376 35.935 -1.829
-40.65 27.79 -1.372
-43.423 29.289 -1.472
-55.741 36.846 -1.934
-43.272 28.402 -1.452
-43.182 28.149 -1.445
-43.417 28.205 -1.453
-43.586 28.121 -1.456
-42.651 27.138 -1.414
-42.812 27.052 -1.417
-42.829 26.875 -1.414
-34.542 21.518 -1.098
-34.528 21.434 -1.096
-34.61 21.335 -1.097
-65.543 32.861 -2.142
-65.701 32.682 -2.144
-65.916 32.531 -2.148
-66.025 32.328 -2.149
-65.483 31.807 -2.126
-65.322 31.602 -2.118
-65.481 31.426 -2.12
-44.921 21.203 -1.386
-64.994 30.441 -2.093
-64.876 30.138 -2.085
-65.035 29.964 -2.088
-65.489 30.048 -2.102
-65.365 29.743 -2.094
-64.706 29.198 -2.068
-64.657 28.931 -2.063
-65.001 28.841 -2.072
-65.203 28.686 -2.076
-65.342 28.502 -2.077
-65.451 28.428 -2.08
-65.456 28.185 -2.077
-65.66 28.029 -2.081
-65.534 27.732 -2.073
-65.602 27.519 -2.073
-65.707 27.32 -2.073
-70.325 28.983 -2.23
-70.078 28.753 -2.22
-67.837 27.584 -2.14
-67.833 27.334 -2.136
-67.893 27.11 -2.136
-67.702 26.788 -2.126
-67.604 26.504 -2.12
-67.975 26.403 -2.13
-68.039 26.182 -2.129
-57.865 22.159 -1.779
-68.039 25.815 -2.125
-68.316 25.675 -2.132
-68.54 25.514 -2.136
-69.807 25.736 -2.177
-70.032 25.57 -2.182
-70.451 25.472 -2.193
-69.192 24.648 -2.147
-69.603 24.549 -2.158
-69.457 24.252 -2.15
-69.079 23.877 -2.135
-69.222 23.683 -2.137
-70.557 23.893 -2.18
-68.236 22.987 -2.1
-71.659 23.641 -2.211
-71.545 23.354 -2.204
-71.431 23.069 -2.198
-77.975 17.414 -2.353
-77.937 17.149 -2.35
-77.94 16.893 -2.348
-77.997 16.649 -2.348
-78.017 16.397 -2.347
-78.431 -10.049 -2.326
-72.316 -9.729 -2.131
-71.081 -9.791 -2.092
-68.235 -9.619 -2.001
-65.828 -9.491 -1.924
-42.215 -6.435 -1.162
-42.226 -6.572 -1.163
-41.957 -6.666 -1.155
-41.935 -6.797 -1.155
-59.027 -9.748 -1.71
-58.779 -9.896 -1.703
-56.596 -9.713 -1.634
-56.5 -9.788 -1.631
-57.345 -10.119 -1.659
-56.461 -10.147 -1.632
-56.301 -10.301 -1.628
-47.244 -9.34 -1.337
-46.844 -9.414 -1.325
-46.489 -9.495 -1.314
-44.626 -9.262 -1.254
-44.607 -9.404 -1.255
-44.655 -9.561 -1.257
-44.812 -9.668 -1.263
-44.672 -9.785 -1.259
-44.51 -9.896 -1.255
-44.331 -10.003 -1.25
-41.425 -9.485 -1.156
-41.346 -9.604 -1.154
-41.216 -9.711 -1.151
-41.098 -9.819 -1.148
-41.056 -9.877 -1.147
-38.509 -9.394 -1.064
-38.017 -9.401 -1.049
-37.703 -9.45 -1.04
-36.593 -9.295 -1.004
-36.486 -9.39 -1.002
-36.119 -9.356 -0.99
-35.956 -9.434 -0.985
-35.927 -9.547 -0.985
-35.746 -9.62 -0.98
-35.507 -9.675 -0.974
-35.833 -9.885 -0.985
-35.609 -9.944 -0.979
-35.487 -10.03 -0.976
-35.364 -10.055 -0.972
-35.369 -10.177 -0.974
-35.256 -10.265 -0.971
-35.312 -10.401 -0.974
-35.327 -10.526 -0.975
-35.521 -10.706 -0.983
-35.73 -10.891 -0.991
-35.788 -10.97 -0.994
-35.585 -11.031 -0.988
-35.548 -11.142 -0.988
-31.671 -10.039 -0.859
-31.53 -10.103 -0.855
-31.464 -10.191 -0.854
-31.436 -10.291 -0.854
-31.454 -10.352 -0.855
-26.374 -8.777 -0.685
-26.115 -8.782 -0.677
-26.023 -8.842 -0.675
-25.994 -8.923 -0.675
-25.578 -8.871 -0.662
-25.578 -8.961 -0.663
-25.628 -9.024 -0.665
-25.419 -9.04 -0.659
-25.281 -9.081 -0.655
-24.367 -8.84 -0.625
-24.173 -8.942 -0.621
-24.041 -8.979 -0.617
-23.674 -8.927 -0.605
-23.402 -8.867 -0.597
-23.335 -8.926 -0.595
-23.363 -9.02 -0.597
-23.204 -9.043 -0.593
-23.354 -9.186 -0.599
-23.985 -9.52 -0.622
-23.344 -9.352 -0.601
-23.244 -9.354 -0.598
-21.768 -8.841 -0.548
-21.719 -8.901 -0.547
-21.654 -8.954 -0.546
-21.526 -8.981 -0.542
-21.485 -9.043 -0.542
-21.482 -9.121 -0.543
-21.536 -9.184 -0.545
-21.173 -9.108 -0.533
-20.968 -9.099 -0.527
-20.86 -9.13 -0.524
-20.79 -9.177 -0.523
-20.638 -9.188 -0.519
-20.7 -9.294 -0.522
-20.73 -9.346 -0.523
-20.793 -9.453 -0.527
-20.8 -9.535 -0.528
-20.829 -9.628 -0.53
-20.074 -9.356 -0.504
-20.102 -9.446 -0.507
-20.378 -9.654 -0.517
-20.088 -9.555 -0.508
-20.284 -9.726 -0.516
-20.352 -9.838 -0.519
-20.217 -9.851 -0.515
-20.354 -9.997 -0.521
-20.328 -10.064 -0.522
-20.957 -10.456 -0.545
-26.2 -13.116 -0.733
-20.102 -10.149 -0.516
-19.931 -10.142 -0.511
-19.919 -10.214 -0.512
-20.015 -10.343 -0.517
-20.184 -10.511 -0.524
-20.381 -10.695 -0.532
-20.305 -10.736 -0.531
-20.154 -10.697 -0.526
-20.053 -10.724 -0.523
-21.546 -11.608 -0.579
-20.337 -11.041 -0.536
-21.02 -11.496 -0.562
-20.148 -11.103 -0.532
-20.468 -11.362 -0.545
-20.807 -11.593 -0.558
-20.79 -11.669 -0.559
-20.857 -11.793 -0.563
-19.777 -11.266 -0.524
-19.94 -11.441 -0.531
-22.78 -13.162 -0.638
-20.445 -11.945 -0.554
-20.33 -11.963 -0.551
-20.375 -12.076 -0.554
-20.103 -12.001 -0.545
-19.969 -12.006 -0.541
-19.94 -12.074 -0.542
-19.75 -12.044 -0.536
-28.013 -17.192 -0.848
-19.95 -12.295 -0.546
-19.527 -12.12 -0.531
-19.25 -12.032 -0.522
-19.317 -12.159 -0.526
-19.706 -12.49 -0.542
-20.458 -13.055 -0.572
-20.223 -12.995 -0.565
-26.796 -17.268 -0.816
-20.301 -13.18 -0.57
-20.176 -13.189 -0.567
-20.089 -13.223 -0.565
-20.182 -13.375 -0.571
-20.154 -13.448 -0.571
-29.031 -19.49 -0.915
-23.23 -15.654 -0.692
-28.88 -19.586 -0.913
-35.38 -24.15 -1.167
-29.414 -20.218 -0.938
-21.79 -15.087 -0.644
-21.691 -15.12 -0.642
-18.513 -12.996 -0.52
-18.506 -13.034 -0.52
-18.484 -13.106 -0.521
-18.544 -13.236 -0.525
-18.548 -13.327 -0.527
-18.519 -13.394 -0.527
-21.284 -15.492 -0.638
-21.369 -15.656 -0.644
-28.177 -20.702 -0.915
-21.446 -15.973 -0.652
-21.407 -16.048 -0.652
-21.797 -16.448 -0.67
-21.757 -16.524 -0.67
-21.834 -16.691 -0.675
-26.804 -20.55 -0.877
-26.603 -20.529 -0.871
-26.466 -20.556 -0.868
-20.758 -16.235 -0.639
-20.665 -16.267 -0.637
-20.562 -16.291 -0.635
-20.567 -16.4 -0.638
-20.735 -16.587 -0.646
-21.102 -16.989 -0.663
-24.608 -19.934 -0.809
-21.055 -17.17 -0.665
-22.354 -18.345 -0.721
-22.292 -18.411 -0.721
-24.089 -20.02 -0.798
-20.801 -17.347 -0.663
-22.974 -19.279 -0.756
-20.278 -17.13 -0.645
-20.203 -17.175 -0.644
-20.177 -17.262 -0.646
-20.136 -17.337 -0.646
-20.172 -17.478 -0.65
-20.173 -17.535 -0.651
-20.092 -17.576 -0.65
-20.001 -17.607 -0.649
-19.91 -17.638 -0.647
-20.278 -18.078 -0.665
-20.077 -18.012 -0.659
-20.17 -18.211 -0.665
-19.966 -18.141 -0.659
-23.386 -21.309 -0.808
-23.152 -21.23 -0.801
-23.221 -21.427 -0.807
-19.044 -17.691 -0.628
-18.927 -17.693 -0.625
-18.832 -17.716 -0.623
-18.825 -17.82 -0.625
-18.882 -17.931 -0.629
-18.778 -17.944 -0.627
-22.554 -21.681 -0.797
-22.462 -21.729 -0.796
-22.339 -21.747 -0.793
-22.252 -21.799 -0.793
-22.071 -21.758 -0.788
-22.029 -21.784 -0.787
-24.442 -24.319 -0.899
-24.632 -24.662 -0.911
-24.77 -24.957 -0.921
-19.042 -19.314 -0.664
-18.949 -19.341 -0.662
-23.352 -23.977 -0.867
-18.933 -19.63 -0.669
-18.933 -19.755 -0.671
-19.061 -20.014 -0.68
-19.285 -20.375 -0.694
-19.055 -20.26 -0.686
-24.942 -26.675 -0.965
-23.276 -24.974 -0.888
-23.335 -25.195 -0.895
-19.989 -21.725 -0.741
-19.94 -21.808 -0.741
-19.95 -21.958 -0.745
-19.929 -22.074 -0.747
-19.792 -22.06 -0.744
-19.984 -22.344 -0.755
-21.883 -24.775 -0.854
-21.787 -24.823 -0.853
-21.779 -24.972 -0.856
-21.173 -24.432 -0.83
-20.051 -23.288 -0.779
-20.017 -23.396 -0.781
-19.991 -23.44 -0.782
-19.873 -23.451 -0.779
-20.537 -24.387 -0.816
-20.409 -24.39 -0.814
-19.558 -23.525 -0.775
-19.469 -23.568 -0.774
-19.421 -23.586 -0.774
-19.319 -23.613 -0.772
-19.064 -23.452 -0.763
-18.979 -23.497 -0.762
-19.004 -23.68 -0.767
-18.957 -23.774 -0.769
-18.731 -23.642 -0.761
-18.676 -23.726 -0.762
-21.252 -27.255 -0.902
-24.006 -30.982 -1.05
-24.78 -32.188 -1.096
-20.501 -26.985 -0.88
-24.277 -32.157 -1.085
-23.301 -30.967 -1.036
-24.205 -32.378 -1.09
-23.607 -31.787 -1.063
-23.219 -31.47 -1.047
-22.337 -30.476 -1.005
-22.999 -31.586 -1.046
-21.126 -29.209 -0.949
-22.835 -31.673 -1.045
-21.901 -30.582 -1
-21.984 -30.901 -1.009
-23.943 -33.876 -1.123
-24.092 -34.314 -1.138
-24.008 -34.424 -1.139
-23.84 -34.414 -1.136
-23.691 -34.313 -1.13
-23.527 -34.307 -1.127
-23.406 -34.361 -1.126
-23.278 -34.404 -1.125
-23.668 -35.219 -1.154
-23.584 -35.333 -1.155
-23.023 -34.729 -1.129
-22.992 -34.919 -1.134
-22.952 -34.977 -1.135
-26.632 -40.858 -1.357
-22.085 -34.36 -1.103
-21.958 -34.399 -1.102
-21.927 -34.589 -1.106
-21.975 -34.786 -1.113
-21.658 -34.525 -1.1
-21.959 -35.249 -1.125
-21.928 -35.447 -1.13
-21.489 -34.983 -1.11
-21.182 -34.727 -1.098
-21.269 -35.117 -1.11
-21.126 -35.005 -1.104
-21.214 -35.402 -1.117
-20.924 -35.168 -1.105
-20.802 -35.214 -1.105
-21.183 -36.117 -1.136
-21.288 -36.558 -1.15
-21.073 -36.452 -1.143
-20.918 -36.447 -1.141
-20.781 -36.341 -1.136
-20.604 -36.297 -1.132
-20.51 -36.396 -1.133
-20.634 -36.886 -1.148
-20.601 -37.101 -1.154
-20.678 -37.515 -1.167
-20.548 -37.557 -1.166
-20.97 -38.472 -1.198
-20.625 -38.123 -1.183
-20.275 -37.76 -1.167
-20.278 -38.053 -1.176
-20.557 -38.869 -1.203
-20.208 -38.501 -1.187
-20.646 -39.637 -1.226
-20.595 -39.69 -1.227
-20.309 -39.442 -1.216
-19.925 -38.997 -1.197
-19.867 -39.188 -1.202
-19.671 -39.105 -1.197
-21.015 -42.101 -1.302
-20.87 -42.142 -1.301
-20.815 -42.198 -1.302
-20.73 -42.36 -1.305
-21.463 -44.206 -1.368
-20.409 -42.376 -1.301
-20.308 -42.507 -1.303
-20.183 -42.588 -1.304
-19.997 -42.541 -1.3
-19.913 -42.536 -1.299
-14.736 -31.752 -0.916
-21.038 -45.681 -1.405
-20.774 -45.483 -1.396
-20.735 -45.778 -1.404
-20.566 -45.786 -1.402
-21.604 -48.501 -1.495
-22.169 -49.979 -1.546
-21.433 -48.733 -1.5
-21.649 -49.646 -1.529
-21.474 -49.67 -1.528
-21.305 -49.708 -1.527
-21.145 -49.765 -1.526
-22.79 -54.103 -1.675
-22.563 -53.801 -1.663
-22.343 -53.748 -1.659
-22.025 -53.458 -1.646
-22.004 -53.885 -1.659
-24.146 -59.659 -1.856
-23.807 -59.358 -1.843
-23.541 -59.233 -1.836
-23.486 -59.367 -1.839
-23.341 -59.546 -1.843
-22.935 -59.055 -1.823
-9.4 -24.474 -0.635
-9.141 -24.027 -0.618
-8.973 -23.809 -0.61
-8.967 -24.022 -0.616
-8.934 -24.05 -0.617
-8.84 -24.027 -0.615
-8.788 -24.12 -0.617
-8.82 -24.445 -0.627
-8.686 -24.312 -0.622
-10.68 -32.249 -0.883
-10.588 -32.309 -0.884
-6.123 -31.942 -0.837
-6.007 -31.877 -0.834
-5.904 -31.882 -0.833
-5.814 -31.955 -0.835
-4.172 -23.383 -0.556
-4.087 -23.333 -0.554
-3.958 -23.027 -0.543
-3.928 -23.065 -0.544
-3.84 -22.984 -0.541
-3.763 -22.97 -0.541
-3.675 -22.882 -0.537
-3.633 -23.084 -0.544
-3.714 -24.081 -0.576
-3.529 -23.38 -0.552
-3.424 -22.928 -0.538
-3.031 -20.76 -0.467
-2.968 -20.787 -0.468
-2.706 -19.399 -0.423
-2.645 -19.403 -0.422
-2.565 -19.273 -0.418
-2.518 -19.38 -0.421
-2.457 -19.15 -0.414
-2.426 -19.389 -0.421
-2.367 -19.413 -0.422
-2.298 -19.351 -0.419
-2.256 -19.519 -0.425
-2.198 -19.555 -0.425
-2.119 -19.407 -0.42
-2.068 -19.224 -0.414
-2.006 -19.216 -0.414
-1.974 -19.493 -0.423
-1.994 -20.317 -0.449
-2.029 -21.353 -0.482
-1.843 -20.076 -0.441
-1.772 -20.002 -0.438
-1.717 -20.097 -0.441
-1.685 -20.094 -0.441
-1.634 -20.24 -0.446
-1.578 -20.349 -0.449
-1.505 -20.236 -0.445
-1.434 -20.137 -0.442
-1.364 -20.044 -0.439
-1.432 -21.512 -0.486
-1.247 -19.705 -0.428
-1.191 -19.797 -0.43
-1.109 -19.461 -0.42
-1.017 -18.904 -0.402
-0.96 -18.965 -0.403
-0.908 -19.121 -0.408
-0.907 -19.734 -0.428
-0.841 -19.651 -0.425
-0.789 -19.885 -0.433
-0.736 -20.121 -0.44
-0.681 -20.373 -0.448
-0.623 -20.563 -0.454
-0.562 -20.692 -0.458
-0.524 -20.481 -0.451
-0.465 -20.729 -0.459
-0.403 -20.856 -0.463
-0.332 -20.581 -0.454
-0.267 -20.5 -0.452
-0.203 -20.537 -0.453
-0.14 -20.783 -0.461
-0.069 -19.598 -0.423
-0.038 -19.467 -0.419
0.023 -18.571 -0.39
0.084 -19.273 -0.412
0.14 -18.495 -0.388
0.197 -18.46 -0.387
0.256 -18.531 -0.389
0.205 -12.814 -0.206
0.246 -12.854 -0.207
0.334 -13.134 -0.216
0.377 -13.226 -0.219
0.435 -13.777 -0.237
0.455 -13.04 -0.213
0.498 -13.701 -0.234
0.534 -13.519 -0.229
0.553 -12.948 -0.21
0.587 -12.797 -0.206
0.631 -12.861 -0.208
0.668 -12.795 -0.206
0.714 -12.908 -0.209
0.763 -13.056 -0.214
0.769 -12.805 -0.206
0.802 -12.677 -0.202
0.846 -12.738 -0.204
0.878 -12.624 -0.201
0.957 -13.171 -0.218
0.958 -12.626 -0.201
1.033 -13.077 -0.215
1.069 -13.275 -0.222
1.112 -13.291 -0.223
1.163 -13.387 -0.226
1.13 -12.539 -0.199
1.16 -12.432 -0.195
1.201 -12.442 -0.196
1.241 -12.451 -0.196
1.264 -12.482 -0.197
1.307 -12.522 -0.199
1.301 -12.087 -0.185
1.338 -12.07 -0.184
1.363 -11.955 -0.181
1.408 -12.008 -0.183
1.456 -12.091 -0.185
1.461 -11.978 -0.182
1.522 -12.157 -0.188
1.56 -12.157 -0.188
1.591 -12.094 -0.186
1.607 -11.923 -0.181
1.635 -11.852 -0.179
1.917 -13.601 -0.235
1.942 -13.63 -0.236
1.748 -11.972 -0.183
1.774 -11.889 -0.18
1.817 -11.923 -0.182
2.559 -16.511 -0.33
2.151 -13.564 -0.235
2.193 -13.551 -0.235
2.59 -15.875 -0.31
2.635 -15.841 -0.31
2.978 -17.575 -0.366
2.141 -12.354 -0.197
2.519 -14.295 -0.26
2.56 -14.263 -0.259
2.331 -12.741 -0.21
1.848 -9.984 -0.121
1.876 -9.96 -0.12
1.905 -9.939 -0.12
1.935 -9.927 -0.119
1.925 -9.709 -0.112
1.788 -8.863 -0.085
1.822 -8.889 -0.086
1.843 -8.918 -0.087
1.936 -9.227 -0.097
2.029 -9.524 -0.107
1.918 -8.861 -0.086
1.944 -8.845 -0.085
1.968 -8.821 -0.085
2.009 -8.875 -0.087
2.029 -8.898 -0.088
2.019 -8.724 -0.082
2.089 -8.904 -0.088
2.124 -8.927 -0.089
2.956 -12.296 -0.2
2.915 -11.954 -0.189
2.928 -11.846 -0.186
2.957 -11.884 -0.188
2.994 -11.873 -0.188
3.041 -11.902 -0.189
2.526 -9.737 -0.118
2.547 -9.693 -0.116
2.588 -9.727 -0.118
2.61 -9.686 -0.117
2.632 -9.707 -0.118
2.659 -9.685 -0.117
3.935 -14.206 -0.267
3.273 -11.514 -0.179
3.302 -11.479 -0.178
3.436 -11.81 -0.189
2.802 -9.555 -0.114
2.831 -9.544 -0.114
2.867 -9.557 -0.115
2.907 -9.578 -0.116
2.729 -8.886 -0.093
2.819 -9.08 -0.1
2.902 -9.247 -0.106
2.919 -9.25 -0.106
2.944 -9.225 -0.106
3.857 -11.985 -0.199
3.865 -11.879 -0.195
4.403 -13.403 -0.247
3.981 -11.982 -0.2
3.924 -11.685 -0.19
3.935 -11.656 -0.189
4.096 -12.013 -0.202
4.089 -11.868 -0.197
4.123 -11.847 -0.197
4.226 -12.021 -0.203
4.274 -12.036 -0.204
4.242 -11.828 -0.198
3.936 -10.915 -0.167
4.164 -11.438 -0.185
4.358 -11.744 -0.197
4.397 -11.734 -0.197
5.044 -13.344 -0.252
4.439 -11.623 -0.194
4.38 -11.413 -0.187
4.124 -10.642 -0.161
4.171 -10.664 -0.162
4.194 -10.625 -0.161
4.198 -10.537 -0.159
4.268 -10.617 -0.162
4.211 -10.379 -0.154
4.653 -11.423 -0.19
4.303 -10.465 -0.158
4.373 -10.542 -0.161
4.737 -11.321 -0.188
4.883 -11.47 -0.195
4.89 -11.387 -0.192
4.805 -11.138 -0.184
4.963 -11.407 -0.194
4.596 -10.468 -0.162
4.584 -10.353 -0.158
4.614 -10.333 -0.158
5.033 -11.182 -0.188
5.068 -11.166 -0.188
5.111 -11.214 -0.19
5.301 -11.536 -0.202
7.867 -17.01 -0.395
4.898 -10.479 -0.166
4.925 -10.452 -0.165
4.919 -10.354 -0.163
4.883 -10.194 -0.157
6.904 -14.381 -0.306
6.94 -14.339 -0.306
6.97 -14.287 -0.304
5.147 -10.452 -0.169
5.034 -10.14 -0.158
10.719 -21.485 -0.564
10.815 -21.508 -0.566
10.814 -21.424 -0.564
9.486 -18.495 -0.461
9.536 -18.449 -0.46
9.6 -18.431 -0.461
9.681 -18.444 -0.462
7.468 -14.108 -0.307
7.481 -14.078 -0.306
7.523 -14.051 -0.306
7.596 -14.08 -0.308
9.222 -16.978 -0.414
9.351 -17.087 -0.419
30.137 -54.782 -1.797
7.357 -13.185 -0.279
7.38 -13.129 -0.278
7.447 -13.151 -0.279
9.418 -16.525 -0.404
9.585 -16.697 -0.412
7.598 -12.986 -0.277
7.63 -12.948 -0.277
8.029 -13.529 -0.299
8.166 -13.662 -0.305
7.981 -13.258 -0.291
7.855 -12.955 -0.281
7.902 -12.941 -0.281
7.801 -12.729 -0.273
7.857 -12.731 -0.274
7.935 -12.768 -0.277
7.932 -12.673 -0.274
7.957 -12.625 -0.273
7.976 -12.567 -0.272
7.994 -12.509 -0.271
8.048 -12.462 -0.27
8.731 -13.432 -0.308
8.72 -13.322 -0.305
8.683 -13.175 -0.301
8.961 -13.506 -0.314
8.535 -12.774 -0.287
8.526 -12.717 -0.286
8.642 -12.803 -0.29
6.349 -9.33 -0.157
8.891 -12.996 -0.3
8.892 -12.911 -0.297
17.758 -25.656 -0.794
17.863 -25.635 -0.796
17.82 -25.487 -0.791
13.899 -19.737 -0.568
9.157 -12.901 -0.302
7.381 -10.321 -0.202
7.426 -10.315 -0.202
7.521 -10.379 -0.206
13.73 -18.858 -0.542
7.494 -10.239 -0.202
7.335 -9.889 -0.19
7.366 -9.866 -0.19
7.728 -10.286 -0.207
7.643 -10.106 -0.201
15.283 -20.119 -0.604
7.437 -9.704 -0.187
9.411 -12.252 -0.29
7.503 -9.696 -0.188
8.188 -10.516 -0.222
7.557 -9.639 -0.188
7.584 -9.613 -0.188
7.624 -9.601 -0.188
8.322 -10.416 -0.222
7.638 -9.526 -0.186
7.686 -9.524 -0.187
7.689 -9.467 -0.186
8.028 -9.823 -0.202
8.411 -10.227 -0.219
7.882 -9.521 -0.191
7.911 -9.494 -0.191
7.913 -9.466 -0.191
7.934 -9.431 -0.19
8.931 -10.554 -0.238
8.988 -10.553 -0.239
9.086 -10.601 -0.242
9.106 -10.557 -0.242
9.267 -10.711 -0.249
19.493 -22.431 -0.747
19.326 -22.097 -0.735
19.412 -22.055 -0.736
19.899 -22.466 -0.756
20.154 -22.611 -0.765
20.405 -22.749 -0.774
21.362 -23.743 -0.818
9.113 -9.979 -0.228
9.133 -9.938 -0.228
9.159 -9.904 -0.227
9.106 -9.784 -0.223
