ply
format ascii 1.0
comment Created by Open3D
element vertex 2406
property double x
property double y
property double z
end_header
4.931 5.428 -0.387
4.94 5.455 -0.389
4.917 5.464 -0.388
4.889 5.468 -0.387
4.876 5.488 -0.388
4.844 5.487 -0.386
4.791 5.461 -0.382
4.756 5.456 -0.379
4.731 5.445 -0.377
4.684 5.425 -0.374
4.647 5.417 -0.371
4.603 5.4 -0.368
4.587 5.416 -0.368
4.554 5.411 -0.366
4.508 5.391 -0.363
4.511 5.412 -0.364
4.512 5.448 -0.366
4.537 5.513 -0.371
4.507 5.511 -0.37
4.466 5.496 -0.367
4.441 5.501 -0.366
4.412 5.501 -0.364
4.396 5.499 -0.364
4.369 5.5 -0.362
4.302 5.451 -0.356
4.279 5.457 -0.355
4.273 5.484 -0.356
4.259 5.502 -0.357
4.258 5.519 -0.358
4.218 5.504 -0.355
4.177 5.485 -0.352
4.167 5.508 -0.353
4.117 5.478 -0.348
4.095 5.484 -0.348
4.088 5.512 -0.349
4.091 5.532 -0.351
4.057 5.523 -0.348
3.982 5.458 -0.341
3.921 5.41 -0.335
3.914 5.437 -0.336
3.89 5.439 -0.335
3.879 5.459 -0.336
3.862 5.454 -0.335
3.867 5.497 -0.338
3.846 5.504 -0.337
3.847 5.543 -0.34
3.828 5.553 -0.34
3.825 5.585 -0.342
3.792 5.575 -0.34
3.78 5.576 -0.339
3.743 5.559 -0.336
3.751 5.608 -0.34
3.752 5.648 -0.343
3.723 5.643 -0.341
3.703 5.652 -0.341
3.718 5.713 -0.346
3.722 5.758 -0.349
3.721 5.776 -0.35
3.711 5.801 -0.351
3.712 5.843 -0.354
3.709 5.878 -0.356
3.715 5.928 -0.36
3.751 6.028 -0.368
3.732 6.04 -0.368
3.719 6.039 -0.368
3.685 6.027 -0.365
3.68 6.06 -0.367
3.678 6.101 -0.37
3.7 6.18 -0.377
3.682 6.194 -0.377
3.688 6.227 -0.379
3.661 6.225 -0.378
3.676 6.296 -0.384
3.668 6.327 -0.385
3.642 6.328 -0.384
3.654 6.395 -0.39
3.678 6.484 -0.397
3.674 6.523 -0.399
3.663 6.529 -0.399
3.643 6.54 -0.399
3.629 6.564 -0.4
3.728 6.792 -0.42
3.814 6.999 -0.438
3.803 7.03 -0.44
3.781 7.042 -0.44
3.769 7.048 -0.44
3.744 7.053 -0.439
3.708 7.04 -0.437
3.679 7.038 -0.436
3.652 7.04 -0.435
3.622 7.036 -0.434
3.595 7.038 -0.433
3.578 7.033 -0.432
3.552 7.036 -0.431
3.539 7.064 -0.433
3.514 7.07 -0.432
3.487 7.072 -0.431
3.449 7.051 -0.428
3.45 7.081 -0.431
3.413 7.062 -0.428
3.399 7.089 -0.429
3.356 7.056 -0.426
3.331 7.061 -0.425
3.304 7.063 -0.424
3.281 7.071 -0.424
3.275 7.087 -0.425
3.238 7.065 -0.422
3.212 7.066 -0.421
3.194 7.085 -0.422
3.156 7.061 -0.419
3.13 7.063 -0.419
3.105 7.066 -0.418
3.077 7.063 -0.417
3.062 7.058 -0.416
3.045 7.081 -0.417
3.006 7.052 -0.414
2.977 7.045 -0.412
2.957 7.058 -0.413
2.924 7.043 -0.411
2.9 7.047 -0.41
2.883 7.036 -0.409
2.858 7.038 -0.408
2.836 7.047 -0.408
2.803 7.03 -0.406
2.779 7.033 -0.405
2.754 7.035 -0.405
2.732 7.011 -0.402
2.71 7.02 -0.402
2.689 7.032 -0.403
2.66 7.023 -0.401
2.638 7.032 -0.401
2.609 7.021 -0.4
2.589 7.033 -0.4
2.573 7.024 -0.399
2.549 7.029 -0.399
2.521 7.02 -0.397
2.503 7.039 -0.398
2.478 7.037 -0.397
2.445 7.017 -0.395
2.419 7.011 -0.394
2.401 7.03 -0.395
2.386 7.023 -0.394
2.366 7.038 -0.394
2.338 7.028 -0.393
2.309 7.014 -0.391
2.287 7.022 -0.391
2.273 7.053 -0.393
2.247 7.049 -0.392
2.221 7.003 -0.388
2.195 7.001 -0.387
2.174 7.01 -0.387
2.144 6.99 -0.385
2.07 6.904 -0.377
2.045 6.899 -0.376
2.026 6.956 -0.38
2.003 6.959 -0.38
1.982 6.967 -0.38
1.969 7.006 -0.383
1.945 7.002 -0.382
1.926 7.02 -0.383
1.914 7.019 -0.382
1.885 7 -0.38
1.866 7.017 -0.381
1.844 7.025 -0.381
1.827 7.05 -0.383
1.807 7.064 -0.384
1.79 7.089 -0.385
1.78 7.095 -0.386
1.761 7.114 -0.387
1.739 7.124 -0.387
1.72 7.143 -0.388
1.702 7.166 -0.39
1.681 7.179 -0.39
1.662 7.197 -0.391
1.655 7.219 -0.393
1.634 7.23 -0.393
1.616 7.255 -0.395
1.596 7.276 -0.396
1.574 7.282 -0.396
1.556 7.313 -0.399
1.538 7.337 -0.4
1.527 7.345 -0.401
1.508 7.366 -0.402
1.485 7.374 -0.402
1.467 7.402 -0.404
1.444 7.409 -0.404
1.424 7.433 -0.406
1.403 7.447 -0.407
1.395 7.467 -0.408
1.373 7.481 -0.409
1.351 7.493 -0.41
1.332 7.523 -0.412
1.312 7.549 -0.413
1.288 7.553 -0.413
1.269 7.58 -0.415
1.256 7.578 -0.415
1.235 7.6 -0.416
1.214 7.622 -0.418
1.192 7.639 -0.419
1.174 7.678 -0.422
1.149 7.674 -0.421
1.126 7.69 -0.422
1.117 7.713 -0.424
1.091 7.701 -0.423
1.064 7.682 -0.421
1.033 7.642 -0.417
1.003 7.598 -0.414
0.976 7.577 -0.412
0.948 7.549 -0.409
0.758 7.24 -0.383
0.741 7.185 -0.378
0.71 7.11 -0.372
0.686 7.089 -0.37
0.66 7.057 -0.367
0.637 7.043 -0.366
0.614 7.035 -0.365
0.59 7.019 -0.364
0.578 7.016 -0.364
0.557 7.028 -0.364
0.534 7.012 -0.363
0.512 7.021 -0.364
0.49 7.015 -0.363
0.467 7.006 -0.362
0.445 7.006 -0.362
0.435 7.021 -0.363
0.412 7.012 -0.362
0.389 7.003 -0.361
0.368 7.012 -0.362
0.345 7.007 -0.362
0.323 7.005 -0.361
0.301 7.008 -0.361
0.291 7.012 -0.362
0.269 7.015 -0.362
0.246 7.008 -0.361
0.224 7.006 -0.361
0.202 7.009 -0.361
0.18 7.004 -0.361
0.158 7.002 -0.361
0.147 7.014 -0.362
0.125 7.015 -0.362
0.103 7.001 -0.36
0.081 7.01 -0.361
0.059 7.016 -0.362
0.037 7.006 -0.361
0.015 7.012 -0.361
0.004 7.008 -0.361
-0.018 7.004 -0.361
-0.04 7.014 -0.361
-0.062 7.012 -0.361
-0.084 7.006 -0.361
-0.106 7.007 -0.361
-0.128 7.025 -0.362
-0.139 7.007 -0.361
-0.161 7.002 -0.361
-0.183 7.012 -0.361
-0.205 7.007 -0.361
-0.227 7.006 -0.361
-0.25 7.043 -0.364
-0.271 6.995 -0.36
-0.283 7.018 -0.362
-0.305 7.013 -0.362
-0.326 7 -0.361
-0.348 7.001 -0.361
-0.371 7.01 -0.362
-0.394 7.029 -0.364
-0.415 7.01 -0.362
-0.426 7.011 -0.362
-0.448 7.004 -0.362
-0.47 7.012 -0.363
-0.492 7.003 -0.362
-0.515 7.021 -0.364
-0.536 7.007 -0.363
-0.559 7.012 -0.363
-0.57 7.011 -0.363
-0.592 7.005 -0.363
-0.614 7.009 -0.363
-0.636 7.011 -0.364
-0.658 7.009 -0.364
-0.68 7.001 -0.363
-0.702 7.003 -0.363
-0.713 6.998 -0.363
-0.735 7.001 -0.364
-0.758 7.005 -0.364
-0.779 6.997 -0.364
-0.803 7.004 -0.364
-0.825 7.002 -0.364
-0.849 7.017 -0.366
-0.857 6.994 -0.364
-0.88 6.999 -0.365
-0.902 6.998 -0.365
-0.925 7.003 -0.365
-0.948 7.006 -0.366
-0.971 7.007 -0.366
-0.99 6.984 -0.365
-1.014 6.997 -0.366
-1.029 7.021 -0.368
-1.048 7.002 -0.367
-1.071 7.004 -0.367
-1.091 6.989 -0.366
-1.116 6.999 -0.367
-1.138 6.996 -0.367
-1.158 6.982 -0.367
-1.17 6.987 -0.367
-1.192 6.987 -0.367
-1.214 6.983 -0.367
-1.235 6.969 -0.367
-1.258 6.971 -0.367
-1.28 6.973 -0.367
-1.303 6.975 -0.368
-1.319 7 -0.37
-1.348 7.03 -0.373
-1.363 6.99 -0.37
-1.388 6.999 -0.371
-1.411 7.001 -0.372
-1.431 6.987 -0.371
-1.456 7 -0.372
-1.465 6.988 -0.371
-1.488 6.985 -0.372
-1.514 7 -0.373
-1.537 6.999 -0.374
-1.559 6.998 -0.374
-1.582 6.997 -0.374
-1.605 6.996 -0.375
-1.619 7.005 -0.375
-1.642 7.004 -0.376
-1.66 6.983 -0.375
-1.687 6.997 -0.376
-1.711 7.003 -0.377
-1.733 6.998 -0.377
-1.758 7.002 -0.378
-1.768 6.995 -0.378
-1.789 6.988 -0.377
-1.811 6.982 -0.377
-1.838 6.994 -0.379
-1.859 6.986 -0.379
-1.882 6.984 -0.379
-1.904 6.98 -0.379
-1.915 6.977 -0.379
-1.941 6.985 -0.38
-1.968 6.996 -0.382
-1.99 6.991 -0.382
-2.013 6.989 -0.382
-2.044 7.011 -0.385
-2.061 6.988 -0.383
-2.07 6.981 -0.383
-2.09 6.966 -0.382
-2.115 6.969 -0.383
-2.138 6.968 -0.383
-2.157 6.952 -0.383
-2.18 6.949 -0.383
-2.202 6.94 -0.383
-2.221 6.965 -0.385
-2.245 6.962 -0.386
-2.266 6.955 -0.386
-2.293 6.961 -0.387
-2.31 6.941 -0.386
-2.335 6.943 -0.386
-2.366 6.962 -0.389
-2.386 6.951 -0.388
-2.4 6.956 -0.389
-2.423 6.951 -0.389
-2.453 6.968 -0.391
-2.486 6.992 -0.394
-2.505 6.975 -0.393
-2.527 6.967 -0.393
-2.547 6.953 -0.393
-2.564 6.968 -0.394
-2.586 6.958 -0.394
-2.617 6.976 -0.396
-2.643 6.979 -0.397
-2.667 6.976 -0.398
-2.698 6.99 -0.4
-2.735 7.021 -0.403
-2.739 6.998 -0.402
-2.771 7.015 -0.404
-2.784 6.984 -0.402
-2.805 6.973 -0.402
-2.828 6.966 -0.402
-2.85 6.959 -0.402
-2.878 6.965 -0.403
-2.901 6.988 -0.406
-2.918 6.968 -0.405
-2.947 6.975 -0.406
-2.976 6.983 -0.408
-2.993 6.962 -0.407
-3.015 6.953 -0.407
-3.037 6.945 -0.407
-3.056 6.959 -0.408
-3.08 6.953 -0.409
-3.109 6.959 -0.41
-3.127 6.94 -0.409
-3.158 6.952 -0.411
-3.192 6.97 -0.414
-3.208 6.947 -0.413
-3.219 6.942 -0.413
-3.245 6.941 -0.413
-3.285 6.968 -0.417
-3.3 6.944 -0.415
-3.33 6.951 -0.417
-3.358 6.953 -0.418
-3.382 6.946 -0.419
-3.404 6.964 -0.421
-3.423 6.948 -0.42
-3.44 6.927 -0.419
-3.463 6.919 -0.419
-3.49 6.919 -0.42
-3.517 6.919 -0.421
-3.553 6.936 -0.424
-3.589 6.979 -0.428
-3.627 6.999 -0.431
-3.64 6.97 -0.43
-3.672 6.978 -0.431
-3.712 7.002 -0.435
-3.725 6.972 -0.433
-3.76 6.985 -0.435
-3.757 6.953 -0.433
-3.789 6.961 -0.435
-3.82 6.964 -0.436
-3.836 6.942 -0.435
-3.859 6.933 -0.435
-3.886 6.93 -0.436
-3.912 6.925 -0.437
-3.961 6.961 -0.441
-3.977 6.963 -0.442
-4.008 6.968 -0.444
-4.04 6.973 -0.445
-4.074 6.981 -0.447
-4.102 6.978 -0.448
-4.124 6.965 -0.448
-4.143 6.947 -0.448
-4.174 6.975 -0.451
-4.186 6.945 -0.449
-4.194 6.909 -0.447
-4.069 6.654 -0.424
-3.999 6.493 -0.411
-4.038 6.509 -0.413
-4.022 6.439 -0.408
-4.027 6.424 -0.407
-4.044 6.407 -0.407
-4.062 6.39 -0.406
-4.085 6.383 -0.407
-4.077 6.326 -0.403
-4.069 6.27 -0.398
-4.021 6.152 -0.388
-3.999 6.097 -0.384
-3.965 6.004 -0.376
-3.958 5.952 -0.372
-3.975 5.938 -0.372
-4 5.933 -0.373
-4.051 5.969 -0.377
-4.069 5.956 -0.377
-4.043 5.897 -0.372
-4.044 5.859 -0.37
-4.086 5.881 -0.373
-4.102 5.863 -0.373
-4.126 5.859 -0.374
-4.146 5.849 -0.374
-4.158 5.826 -0.373
-4.143 5.785 -0.37
-4.058 5.628 -0.355
-4.121 5.678 -0.362
-4.169 5.707 -0.366
-4.21 5.726 -0.369
-4.241 5.731 -0.371
-4.263 5.722 -0.371
-4.268 5.711 -0.371
-4.277 5.685 -0.369
-4.272 5.641 -0.366
-4.304 5.647 -0.368
-4.334 5.649 -0.37
-4.351 5.635 -0.37
-4.373 5.626 -0.37
-4.386 5.626 -0.371
-4.403 5.61 -0.371
-4.407 5.579 -0.369
-4.421 5.561 -0.369
-4.448 5.559 -0.37
-4.464 5.544 -0.37
-4.469 5.514 -0.368
-4.473 5.501 -0.367
-4.52 5.524 -0.371
-4.545 5.519 -0.372
-4.517 5.449 -0.367
-4.489 5.381 -0.361
-4.541 5.408 -0.365
-4.599 5.443 -0.37
-4.614 5.443 -0.371
-4.622 5.418 -0.37
-4.652 5.419 -0.372
-4.688 5.427 -0.374
-4.721 5.43 -0.376
-4.788 5.473 -0.382
-4.847 5.506 -0.387
-4.897 5.546 -0.392
-4.931 5.548 -0.394
-4.927 5.509 -0.392
-4.955 5.505 -0.393
-5.007 5.528 -0.397
-5.037 5.527 -0.399
-5.074 5.532 -0.401
-5.119 5.564 -0.405
-5.148 5.561 -0.407
-5.182 5.562 -0.409
-5.161 5.505 -0.404
-5.21 5.523 -0.408
-5.237 5.516 -0.409
-5.26 5.506 -0.41
-5.295 5.508 -0.412
-5.287 5.482 -0.41
-5.276 5.437 -0.407
-5.335 5.463 -0.411
-7.86 8.016 -0.699
-7.863 7.968 -0.697
-7.847 7.902 -0.692
-7.872 7.903 -0.694
-7.869 7.85 -0.691
-7.885 7.817 -0.69
-7.867 7.75 -0.685
-7.863 7.697 -0.682
-7.863 7.649 -0.679
-7.878 7.616 -0.678
-7.665 7.385 -0.653
-7.602 7.278 -0.643
-7.608 7.238 -0.641
-7.587 7.173 -0.636
-7.614 7.153 -0.637
-7.699 7.188 -0.644
-7.701 7.145 -0.642
-7.709 7.107 -0.64
-7.701 7.077 -0.638
-7.688 7.02 -0.634
-7.691 6.979 -0.632
-7.692 6.936 -0.63
-7.733 6.929 -0.632
-7.774 6.922 -0.634
-7.83 6.928 -0.638
-7.866 6.938 -0.64
-7.915 6.937 -0.643
-7.958 6.931 -0.645
-8.008 6.93 -0.648
-8.061 6.933 -0.652
-8.115 6.935 -0.655
-8.17 6.937 -0.659
-8.196 6.938 -0.66
-8.283 6.967 -0.667
-8.24 6.886 -0.66
-8.247 6.849 -0.659
-8.315 6.861 -0.664
-8.324 6.824 -0.662
-8.378 6.825 -0.666
-8.406 6.825 -0.667
-8.495 6.854 -0.675
-8.529 6.838 -0.676
-8.518 6.785 -0.672
-8.639 6.837 -0.683
-8.671 6.819 -0.684
-8.647 6.756 -0.679
-8.761 6.823 -0.69
-8.847 6.846 -0.696
-8.892 6.836 -0.699
-8.944 6.831 -0.702
-8.956 6.796 -0.701
-8.983 6.773 -0.701
-9.064 6.789 -0.707
-9.089 6.785 -0.709
-9.163 6.796 -0.714
-9.232 6.803 -0.719
-9.242 6.765 -0.718
-9.363 6.809 -0.728
-9.415 6.802 -0.731
-9.453 6.807 -0.733
-9.45 6.76 -0.731
-9.569 6.8 -0.741
-9.701 6.848 -0.751
-9.634 6.756 -0.743
-9.665 6.732 -0.744
-9.742 6.74 -0.749
-9.876 6.788 -0.76
-9.898 6.78 -0.761
-9.982 6.792 -0.767
-10.051 6.793 -0.772
-10.106 6.784 -0.775
-10.134 6.756 -0.776
-10.248 6.786 -0.785
-10.257 6.746 -0.784
-10.248 6.717 -0.782
-9.485 6.172 -0.707
-10.629 6.873 -0.814
-10.726 6.888 -0.822
-10.88 6.939 -0.834
-10.966 6.946 -0.84
-10.963 6.895 -0.838
-10.989 6.888 -0.839
-11.027 6.864 -0.841
-11.111 6.868 -0.847
-11.219 6.886 -0.855
-11.306 6.891 -0.861
-11.332 6.858 -0.862
-9.295 5.58 -0.669
-9.345 5.59 -0.672
-9.472 5.626 -0.683
-9.514 5.611 -0.685
-11.703 6.859 -0.887
-11.704 6.81 -0.885
-11.823 6.831 -0.894
-11.891 6.82 -0.899
-11.899 6.8 -0.898
-12.048 6.835 -0.91
-12.103 6.816 -0.913
-12.235 6.84 -0.923
-12.372 6.866 -0.934
-12.442 6.854 -0.938
-12.54 6.883 -0.946
-12.56 6.842 -0.946
-10.957 5.921 -0.798
-10.974 5.885 -0.798
-11.033 5.873 -0.802
-11.083 5.855 -0.804
-11.103 5.821 -0.805
-11.248 5.852 -0.816
-11.293 5.853 -0.819
-11.34 5.832 -0.822
-11.434 5.836 -0.829
-11.433 5.79 -0.827
-11.447 5.752 -0.827
-11.526 5.746 -0.832
-11.421 5.649 -0.821
-11.273 5.553 -0.807
-11.335 5.54 -0.811
-11.341 5.499 -0.81
-11.35 5.459 -0.809
-11.39 5.434 -0.811
-11.447 5.417 -0.815
-11.37 5.337 -0.806
-11.412 5.335 -0.81
-11.436 5.303 -0.81
-11.536 5.305 -0.818
-11.665 5.321 -0.827
-11.72 5.301 -0.831
-11.638 5.22 -0.822
-11.68 5.195 -0.824
-11.676 5.171 -0.823
-11.778 5.172 -0.831
-11.77 5.125 -0.829
-11.748 5.071 -0.825
-11.901 5.093 -0.837
-11.889 5.044 -0.835
-11.907 5.008 -0.835
-11.907 4.986 -0.834
-12.05 5.001 -0.846
-12.075 4.967 -0.846
-12.12 4.941 -0.849
-12.272 4.959 -0.861
-12.304 4.927 -0.862
-12.441 4.96 -0.873
-12.585 4.971 -0.884
-12.509 4.896 -0.877
-12.692 4.922 -0.891
-12.713 4.884 -0.891
-12.777 4.863 -0.896
-12.995 4.899 -0.913
-12.926 4.85 -0.906
-13.136 4.882 -0.923
-13.34 4.911 -0.939
-13.451 4.904 -0.947
-14.916 5.388 -1.071
-15.018 5.372 -1.078
-15.311 5.396 -1.101
-15.439 5.387 -1.111
-15.594 5.386 -1.122
-15.774 5.393 -1.136
-15.984 5.409 -1.153
-16.101 5.393 -1.161
-16.695 5.476 -1.209
-16.722 5.456 -1.21
-17.034 5.44 -1.233
-17.203 5.435 -1.246
-17.326 5.414 -1.255
-17.516 5.413 -1.27
-17.693 5.407 -1.283
-17.9 5.44 -1.3
-18.094 5.438 -1.315
-18.289 5.434 -1.33
-18.461 5.422 -1.343
-18.694 5.427 -1.361
-18.531 5.316 -1.346
-18.424 5.254 -1.336
-19.016 5.359 -1.384
-19.123 5.325 -1.392
-19.376 5.33 -1.411
-19.493 5.296 -1.42
-19.602 5.26 -1.427
-19.803 5.248 -1.443
-19.945 5.219 -1.453
-20.399 5.304 -1.49
-20.851 5.352 -1.526
-21.224 5.377 -1.556
-21.25 5.313 -1.556
-21.394 5.278 -1.567
-22.087 5.376 -1.623
-22.154 5.318 -1.627
-22.426 5.347 -1.649
-22.683 5.333 -1.668
-23.245 5.389 -1.713
-23.765 5.432 -1.755
-24.13 5.436 -1.784
-24.443 5.426 -1.808
-24.754 5.414 -1.832
-25.08 5.444 -1.858
-25.378 5.425 -1.881
-25.724 5.415 -1.908
-25.829 5.353 -1.915
-25.996 5.303 -1.928
-26.814 5.382 -1.993
-27.055 5.343 -2.012
-27.124 5.312 -2.017
-27.174 5.233 -2.019
-27.261 5.161 -2.025
-27.318 5.083 -2.028
-27.399 5.01 -2.034
-27.444 4.929 -2.036
-27.493 4.848 -2.039
-27.514 4.808 -2.04
-27.596 4.733 -2.045
-27.632 4.65 -2.047
-27.664 4.566 -2.049
-27.716 4.485 -2.052
-27.755 4.402 -2.054
-27.793 4.318 -2.056
-27.837 4.28 -2.059
-27.86 4.195 -2.059
-27.907 4.112 -2.062
-27.947 4.028 -2.064
-27.956 3.94 -2.064
-27.966 3.852 -2.064
-27.976 3.764 -2.064
-27.962 3.717 -2.062
-27.977 3.63 -2.063
-27.987 3.542 -2.062
-28.015 3.456 -2.064
-27.963 3.36 -2.059
-28.14 3.292 -2.072
-28.665 3.262 -2.114
-29.155 3.272 -2.153
-29.241 3.189 -2.159
-29.139 3.085 -2.15
-29.038 2.982 -2.141
-28.938 2.88 -2.132
-28.786 2.773 -2.119
-28.628 2.667 -2.106
-28.499 2.61 -2.095
-28.354 2.507 -2.083
-28.233 2.407 -2.072
-28.088 2.305 -2.06
-27.983 2.208 -2.051
-27.867 2.111 -2.041
-27.732 2.013 -2.03
-27.612 1.96 -2.02
-27.493 1.865 -2.01
-27.383 1.771 -2.001
-27.255 1.677 -1.99
-27.173 1.586 -1.983
-27.07 1.494 -1.974
-26.987 1.405 -1.967
-26.88 1.357 -1.958
-26.804 1.268 -1.952
-26.723 1.18 -1.945
-26.646 1.093 -1.939
-26.57 1.006 -1.932
-26.483 0.92 -1.925
-26.361 0.832 -1.915
-26.272 0.788 -1.908
-24.36 0.614 -1.754
-24.306 0.536 -1.75
-24.29 0.459 -1.748
-24.241 0.42 -1.744
-24.198 0.344 -1.741
-24.191 0.267 -1.74
-24.146 0.191 -1.736
-24.111 0.115 -1.733
-24.093 0.039 -1.732
-24.063 -0.037 -1.73
-24.041 -0.074 -1.728
-24.027 -0.15 -1.727
-24.002 -0.225 -1.725
-23.958 -0.3 -1.721
-23.957 -0.375 -1.721
-23.969 -0.451 -1.722
-24 -0.527 -1.725
-24.025 -0.565 -1.727
-24.063 -0.641 -1.73
-24.09 -0.718 -1.733
-24.136 -0.795 -1.736
-24.161 -0.872 -1.739
-24.214 -0.95 -1.743
-24.255 -1.028 -1.747
-24.291 -1.068 -1.75
-24.307 -1.145 -1.751
-24.336 -1.223 -1.754
-24.399 -1.303 -1.759
-24.421 -1.381 -1.761
-24.448 -1.459 -1.764
-24.491 -1.539 -1.768
-24.475 -1.577 -1.767
-24.233 -1.638 -1.748
-23.82 -1.686 -1.715
-23.095 -1.708 -1.657
-22.734 -1.753 -1.628
-22.273 -1.789 -1.592
-22.303 -1.862 -1.595
-22.308 -1.897 -1.595
-22.342 -1.971 -1.598
-22.828 -2.086 -1.638
-22.795 -2.155 -1.636
-22.818 -2.229 -1.638
-22.815 -2.301 -1.639
-22.762 -2.368 -1.635
-22.774 -2.406 -1.636
-22.749 -2.475 -1.635
-22.719 -2.544 -1.633
-22.705 -2.615 -1.633
-22.649 -2.681 -1.629
-14.624 -1.787 -0.981
-14.983 -1.878 -1.01
-15.057 -1.911 -1.017
-14.905 -1.94 -1.005
-14.574 -1.944 -0.978
-14.226 -1.943 -0.951
-14.572 -2.037 -0.979
-14.47 -2.069 -0.972
-14.342 -2.097 -0.962
-14.451 -2.136 -0.971
-14.14 -2.136 -0.946
-14.128 -2.179 -0.946
-13.851 -2.182 -0.924
-13.367 -2.15 -0.885
-14.057 -2.304 -0.942
-14.262 -2.384 -0.959
-14.154 -2.389 -0.95
-14.214 -2.444 -0.956
-14.056 -2.463 -0.944
-13.389 -2.391 -0.89
-13.381 -2.433 -0.89
-14.123 -2.612 -0.951
-14.26 -2.684 -0.963
-14.391 -2.731 -0.974
-14.886 -2.921 -1.016
-14.798 -2.953 -1.01
-21.391 -4.326 -1.55
-21.305 -4.379 -1.544
-21.196 -4.426 -1.536
-21.165 -4.454 -1.534
-21.034 -4.496 -1.525
-20.632 -4.478 -1.493
-20.157 -4.442 -1.455
-19.876 -4.446 -1.433
-19.776 -4.489 -1.426
-19.64 -4.523 -1.416
-19.51 -4.526 -1.406
-18.954 -4.46 -1.361
-18.833 -4.494 -1.352
-18.486 -4.473 -1.325
-18.375 -4.508 -1.317
-18.047 -4.488 -1.291
-17.702 -4.462 -1.264
-17.274 -4.383 -1.229
-17.036 -4.38 -1.21
-16.877 -4.396 -1.198
-16.836 -4.442 -1.196
-16.855 -4.504 -1.199
-16.812 -4.549 -1.196
-16.73 -4.583 -1.191
-16.667 -4.594 -1.186
-16.436 -4.587 -1.168
-16.417 -4.637 -1.168
-16.292 -4.657 -1.158
-16.298 -4.714 -1.16
-16.118 -4.718 -1.146
-16.046 -4.751 -1.142
-15.928 -4.744 -1.132
-16.018 -4.825 -1.141
-15.718 -4.789 -1.117
-15.23 -4.694 -1.078
-14.966 -4.664 -1.057
-15.187 -4.785 -1.076
-15.252 -4.858 -1.083
-15.332 -4.91 -1.09
-15.39 -4.982 -1.097
-14.878 -4.869 -1.055
-14.688 -4.858 -1.04
-14.654 -4.898 -1.038
-15.455 -5.218 -1.108
-14.948 -5.1 -1.066
-15.3 -5.247 -1.097
-15.496 -5.368 -1.115
-13.275 -4.649 -0.927
-13.245 -4.732 -0.927
-12.881 -4.649 -0.898
-13.77 -5.017 -0.975
-12.829 -4.698 -0.895
-12.755 -4.717 -0.89
-13.099 -4.89 -0.921
-13.147 -4.955 -0.926
-13.232 -5.034 -0.935
-12.043 -4.628 -0.834
-11.935 -4.63 -0.826
-12.617 -4.961 -0.886
-11.653 -4.627 -0.805
-12.397 -5.011 -0.872
-12.407 -5.06 -0.874
-11.733 -4.829 -0.817
-12.013 -4.966 -0.842
-12.082 -5.039 -0.849
-11.948 -5.028 -0.839
-11.133 -4.728 -0.769
-10.845 -4.646 -0.745
-10.688 -4.619 -0.733
-10.576 -4.611 -0.724
-10.624 -4.651 -0.729
-11.94 -5.268 -0.846
-11.677 -5.197 -0.824
-10.993 -4.935 -0.766
-10.168 -4.606 -0.694
-10.057 -4.594 -0.686
-10.518 -4.843 -0.728
-9.974 -4.613 -0.68
-9.867 -4.602 -0.672
-9.793 -4.605 -0.667
-10.213 -4.84 -0.706
-10.064 -4.848 -0.695
-9.885 -4.8 -0.68
-10.151 -4.948 -0.705
-10.09 -4.958 -0.701
-10.109 -5.046 -0.705
-12.571 -6.367 -0.929
-9.135 -4.689 -0.623
-8.999 -4.655 -0.612
-8.781 -4.578 -0.593
-9.208 -4.836 -0.633
-11.471 -6.063 -0.84
-9.25 -4.932 -0.64
-9.215 -4.951 -0.638
-8.886 -4.793 -0.609
-8.899 -4.836 -0.611
-9.234 -5.055 -0.643
-9.13 -5.073 -0.637
-8.736 -4.891 -0.602
-8.357 -4.715 -0.569
-11.303 -6.484 -0.844
-8.825 -5.142 -0.618
-7.966 -4.679 -0.54
-8.35 -4.955 -0.578
-8.671 -5.219 -0.611
-7.628 -4.627 -0.515
-7.983 -4.876 -0.549
-7.625 -4.708 -0.518
-7.438 -4.625 -0.501
-7.547 -4.758 -0.515
-7.529 -4.78 -0.514
-7.47 -4.776 -0.51
-7.419 -4.777 -0.507
-7.154 -4.623 -0.482
-6.712 -4.369 -0.441
-6.662 -4.366 -0.438
-6.614 -4.365 -0.435
-6.577 -4.371 -0.432
-6.53 -4.369 -0.429
-6.492 -4.373 -0.427
-6.457 -4.364 -0.424
-6.389 -4.348 -0.419
-6.362 -4.359 -0.417
-6.348 -4.379 -0.417
-6.283 -4.364 -0.412
-6.306 -4.408 -0.416
-6.285 -4.424 -0.415
-6.33 -4.47 -0.42
-6.289 -4.47 -0.418
-6.318 -4.521 -0.422
-6.278 -4.523 -0.419
-6.258 -4.538 -0.419
-6.298 -4.627 -0.426
-6.267 -4.62 -0.423
-6.246 -4.635 -0.423
-6.319 -4.72 -0.431
-6.295 -4.732 -0.431
-6.218 -4.705 -0.424
-6.273 -4.778 -0.431
-6.263 -4.801 -0.432
-6.182 -4.755 -0.424
-6.299 -4.907 -0.439
-6.263 -4.911 -0.437
-6.687 -5.31 -0.484
-6.704 -5.34 -0.486
-6.573 -5.27 -0.475
-6.154 -5.032 -0.436
-6.394 -5.295 -0.465
-6.228 -5.174 -0.448
-6.391 -5.342 -0.467
-6.392 -5.412 -0.471
-6.375 -5.432 -0.471
-6.369 -5.461 -0.472
-6.377 -5.538 -0.476
-6.35 -5.532 -0.474
-6.546 -5.738 -0.497
-6.341 -5.701 -0.483
-6.179 -5.645 -0.47
-6.185 -5.686 -0.473
-6.085 -5.701 -0.468
-6.166 -5.794 -0.478
-4.33 -4.51 -0.3
-3.963 -4.33 -0.27
-3.915 -4.304 -0.265
-3.885 -4.298 -0.264
-3.87 -4.296 -0.263
-3.846 -4.296 -0.261
-3.823 -4.298 -0.26
-3.802 -4.301 -0.259
-3.779 -4.302 -0.258
-3.751 -4.298 -0.256
-3.74 -4.312 -0.257
-3.717 -4.3 -0.255
-3.691 -4.297 -0.253
-3.671 -4.301 -0.252
-3.638 -4.29 -0.25
-3.617 -4.292 -0.249
-3.599 -4.299 -0.248
-3.581 -4.304 -0.248
-3.564 -4.297 -0.247
-3.539 -4.295 -0.245
-3.516 -4.295 -0.244
-3.525 -4.334 -0.247
-3.509 -4.342 -0.247
-3.522 -4.385 -0.25
-3.511 -4.399 -0.25
-3.524 -4.43 -0.253
-3.509 -4.439 -0.253
-3.526 -4.489 -0.257
-3.502 -4.488 -0.255
-3.503 -4.519 -0.257
-3.499 -4.543 -0.259
-3.497 -4.57 -0.26
-3.504 -4.594 -0.262
-3.501 -4.619 -0.264
-3.494 -4.64 -0.265
-3.445 -4.606 -0.26
-5.563 -7.508 -0.548
-5.548 -7.512 -0.548
-5.525 -7.531 -0.548
-5.464 -7.497 -0.543
-5.455 -7.535 -0.545
-3.242 -4.525 -0.245
-5.389 -7.593 -0.546
-5.384 -7.611 -0.547
-3.105 -4.497 -0.237
-5.843 -8.537 -0.629
-5.819 -8.559 -0.629
-5.809 -8.573 -0.63
-5.787 -8.599 -0.63
-5.685 -8.505 -0.619
-2.988 -4.523 -0.234
-5.692 -8.691 -0.632
-5.658 -8.699 -0.631
-5.653 -8.721 -0.633
-5.639 -8.759 -0.635
-6.98 -10.906 -0.838
-6.807 -10.71 -0.817
-6.794 -10.765 -0.82
-6.719 -10.796 -0.819
-6.726 -10.845 -0.823
-6.805 -11.049 -0.84
-2.725 -4.485 -0.22
-6.635 -10.927 -0.824
-6.581 -10.992 -0.827
-6.652 -11.189 -0.843
-2.651 -4.506 -0.218
-6.501 -11.055 -0.828
-6.546 -11.292 -0.846
-6.387 -11.099 -0.826
-2.545 -4.486 -0.212
-6.258 -11.035 -0.817
-6.148 -10.882 -0.802
-6.182 -11.023 -0.813
-2.473 -4.474 -0.209
-5.873 -10.788 -0.784
-2.401 -4.475 -0.206
-2.405 -4.5 -0.208
-5.6 -10.563 -0.758
-5.666 -10.768 -0.775
-2.321 -4.478 -0.203
-5.462 -10.542 -0.751
-5.414 -10.53 -0.749
-5.361 -10.468 -0.742
-5.152 -10.14 -0.711
-5.032 -9.982 -0.696
-2.241 -4.513 -0.203
-5.143 -10.363 -0.727
-5.052 -10.261 -0.716
-4.669 -9.561 -0.652
-4.963 -10.201 -0.709
-4.733 -9.809 -0.673
-2.132 -4.488 -0.197
-2.123 -4.503 -0.198
-4.716 -10.094 -0.693
-4.565 -9.814 -0.667
-4.577 -9.92 -0.675
-4.328 -9.462 -0.634
-4.399 -9.695 -0.653
-4.289 -9.535 -0.638
-1.982 -4.476 -0.191
-4.255 -9.659 -0.646
-4.334 -9.922 -0.667
-4.319 -9.972 -0.671
-4.187 -9.752 -0.65
-4.016 -9.439 -0.622
-4.099 -9.715 -0.645
-3.941 -9.468 -0.622
-1.859 -4.483 -0.188
-3.86 -9.441 -0.617
-3.802 -9.383 -0.611
-3.74 -9.314 -0.604
-3.715 -9.338 -0.605
-3.746 -9.502 -0.618
-3.891 -9.91 -0.653
-1.73 -4.487 -0.184
-1.712 -4.481 -0.184
-3.597 -9.515 -0.615
-3.566 -9.522 -0.615
-3.559 -9.595 -0.62
-3.537 -9.584 -0.618
-3.571 -9.767 -0.633
-3.553 -9.814 -0.636
-1.587 -4.468 -0.179
-1.58 -4.494 -0.181
-3.608 -10.367 -0.679
-3.598 -10.39 -0.681
-3.513 -10.25 -0.668
-3.449 -10.167 -0.66
-3.395 -10.116 -0.655
-3.443 -10.364 -0.675
-3.334 -10.144 -0.655
-1.441 -4.477 -0.176
-1.425 -4.453 -0.174
-3.255 -10.281 -0.664
-3.206 -10.24 -0.66
-3.166 -10.225 -0.658
-3.122 -10.195 -0.654
-3.086 -10.135 -0.649
-3.045 -10.116 -0.646
-3.004 -10.095 -0.644
-1.299 -4.467 -0.172
-1.276 -4.442 -0.169
-2.442 -8.612 -0.517
-2.434 -8.635 -0.519
-2.404 -8.633 -0.518
-2.385 -8.672 -0.52
-2.348 -8.644 -0.517
-2.291 -8.542 -0.508
-2.273 -8.58 -0.511
-1.158 -4.478 -0.17
-2.144 -8.469 -0.5
-2.1 -8.408 -0.494
-2.065 -8.38 -0.491
-2.038 -8.385 -0.491
-2.027 -8.455 -0.496
-2.001 -8.406 -0.492
-1.034 -4.459 -0.166
-1.022 -4.47 -0.167
-1.874 -8.335 -0.484
-1.846 -8.335 -0.484
-1.829 -8.382 -0.487
-1.811 -8.361 -0.485
-1.784 -8.365 -0.485
-1.84 -8.755 -0.516
-1.796 -8.682 -0.51
-0.895 -4.459 -0.164
-1.661 -8.301 -0.478
-1.628 -8.269 -0.475
-1.617 -8.281 -0.476
-1.595 -8.31 -0.478
-1.546 -8.195 -0.468
-1.518 -8.188 -0.467
-1.472 -8.083 -0.458
-0.308 -1.837 0.052
-0.302 -1.838 0.052
-0.297 -1.825 0.053
-0.286 -1.796 0.055
-0.276 -1.771 0.058
-0.27 -1.77 0.058
-0.266 -1.777 0.057
-0.259 -1.77 0.058
-0.253 -1.769 0.058
-0.25 -1.767 0.058
-0.243 -1.76 0.059
-0.237 -1.755 0.059
-0.232 -1.762 0.059
-0.228 -1.77 0.058
-0.222 -1.769 0.058
-0.216 -1.766 0.059
-0.211 -1.754 0.06
-0.207 -1.761 0.059
-0.201 -1.757 0.059
-0.195 -1.76 0.059
-0.19 -1.761 0.059
-0.184 -1.761 0.059
-0.181 -1.756 0.06
-0.176 -1.764 0.059
-0.171 -1.769 0.059
-0.165 -1.765 0.059
-0.16 -1.772 0.059
-0.155 -1.78 0.058
-0.149 -1.769 0.059
-0.149 -1.803 0.056
-0.143 -1.795 0.057
-0.138 -1.807 0.056
-0.133 -1.808 0.056
-0.315 -4.445 -0.156
-0.301 -4.448 -0.156
-0.288 -4.467 -0.158
-0.273 -4.454 -0.157
-0.259 -4.453 -0.156
-0.245 -4.453 -0.156
-0.231 -4.452 -0.156
-0.224 -4.449 -0.156
-0.21 -4.449 -0.156
-0.196 -4.456 -0.156
-0.182 -4.455 -0.156
-0.167 -4.439 -0.155
-0.154 -4.448 -0.156
-0.14 -4.45 -0.156
-0.133 -4.454 -0.156
-0.119 -4.447 -0.156
-0.105 -4.455 -0.156
-0.091 -4.447 -0.156
-0.077 -4.442 -0.155
-0.063 -4.442 -0.155
-0.049 -4.462 -0.157
-0.042 -4.448 -0.156
-0.028 -4.466 -0.157
-0.014 -4.452 -0.156
0 -4.444 -0.155
0.014 -4.444 -0.155
0.028 -4.444 -0.155
0.042 -4.452 -0.156
0.049 -4.448 -0.156
0.063 -4.442 -0.155
0.077 -4.448 -0.156
0.091 -4.447 -0.156
0.105 -4.447 -0.156
0.119 -4.459 -0.156
0.126 -4.458 -0.156
0.139 -4.434 -0.155
0.154 -4.446 -0.156
0.168 -4.443 -0.155
0.182 -4.457 -0.156
0.196 -4.442 -0.155
0.209 -4.431 -0.155
0.217 -4.445 -0.156
0.231 -4.45 -0.156
0.245 -4.448 -0.156
0.259 -4.451 -0.156
0.272 -4.438 -0.155
0.286 -4.441 -0.156
0.589 -9.108 -0.531
0.604 -9.127 -0.533
0.322 -4.447 -0.156
0.336 -4.452 -0.157
0.35 -4.448 -0.157
0.732 -8.918 -0.517
0.897 -10.582 -0.651
0.812 -9.363 -0.553
0.953 -10.648 -0.656
0.986 -10.639 -0.656
1.025 -10.693 -0.661
1.055 -10.658 -0.658
0.471 -4.459 -0.158
0.483 -4.444 -0.157
1.172 -10.642 -0.658
1.207 -10.656 -0.659
1.244 -10.676 -0.661
1.281 -10.706 -0.664
1.312 -10.682 -0.662
1.354 -10.741 -0.667
1.346 -10.545 -0.652
0.599 -4.458 -0.16
0.611 -4.444 -0.159
0.626 -4.45 -0.159
1.535 -10.686 -0.665
1.567 -10.669 -0.664
1.591 -10.716 -0.668
1.625 -10.715 -0.668
1.659 -10.716 -0.669
1.692 -10.705 -0.668
1.704 -10.564 -0.657
0.749 -4.458 -0.161
1.828 -10.796 -0.677
0.753 -4.443 -0.16
1.893 -10.764 -0.676
1.932 -10.79 -0.678
1.97 -10.805 -0.68
1.997 -10.766 -0.677
2.011 -10.747 -0.676
2.024 -10.627 -0.667
0.876 -4.441 -0.162
2.166 -10.822 -0.684
0.889 -4.434 -0.161
2.227 -10.773 -0.681
2.252 -10.809 -0.685
2.286 -10.8 -0.684
2.329 -10.837 -0.688
2.369 -10.857 -0.69
2.361 -10.655 -0.674
1.02 -4.467 -0.166
1.03 -4.446 -0.165
2.51 -10.77 -0.686
2.567 -10.859 -0.694
2.587 -10.791 -0.689
2.615 -10.762 -0.687
2.657 -10.786 -0.69
2.701 -10.819 -0.693
2.689 -10.698 -0.684
2.804 -10.869 -0.699
1.148 -4.444 -0.167
2.869 -10.837 -0.698
2.909 -10.849 -0.7
2.918 -10.816 -0.698
2.947 -10.789 -0.696
2.986 -10.797 -0.698
3.085 -11.022 -0.717
3.064 -10.817 -0.701
3.144 -10.839 -0.704
1.292 -4.45 -0.17
3.189 -10.803 -0.703
3.216 -10.77 -0.701
3.264 -10.806 -0.704
3.289 -10.767 -0.702
3.385 -10.836 -0.71
1.388 -4.44 -0.172
3.421 -10.774 -0.706
3.458 -10.773 -0.707
3.476 -10.713 -0.702
3.523 -10.741 -0.706
3.638 -10.863 -0.718
1.489 -4.445 -0.175
3.672 -10.796 -0.714
3.657 -10.64 -0.701
3.791 -10.81 -0.718
1.56 -4.448 -0.177
3.864 -10.799 -0.719
3.822 -10.628 -0.705
1.623 -4.425 -0.177
1.64 -4.428 -0.177
4.035 -10.796 -0.723
4.015 -10.638 -0.711
4.14 -10.816 -0.728
1.716 -4.463 -0.182
4.224 -10.833 -0.732
4.173 -10.6 -0.713
1.787 -4.458 -0.184
4.374 -10.765 -0.731
4.405 -10.743 -0.73
4.51 -10.903 -0.745
4.478 -10.73 -0.732
1.896 -4.465 -0.188
4.566 -10.75 -0.736
4.587 -10.753 -0.737
4.643 -10.79 -0.741
4.691 -10.809 -0.744
4.783 -10.927 -0.756
1.994 -4.479 -0.192
3.925 -8.693 -0.564
3.946 -8.666 -0.563
3.976 -8.661 -0.563
4.016 -8.675 -0.566
3.976 -8.518 -0.553
4.054 -8.616 -0.563
4.131 -8.603 -0.564
4.185 -8.646 -0.569
5.238 -10.75 -0.758
5.294 -10.778 -0.762
5.291 -10.686 -0.755
5.385 -10.793 -0.766
5.436 -10.767 -0.766
5.463 -10.736 -0.765
5.49 -10.706 -0.764
5.54 -10.721 -0.767
5.586 -10.726 -0.769
5.685 -10.834 -0.78
5.616 -10.661 -0.766
5.716 -10.687 -0.771
5.751 -10.673 -0.771
5.799 -10.681 -0.774
5.772 -10.552 -0.764
5.859 -10.632 -0.773
5.805 -10.494 -0.761
2.524 -4.498 -0.212
5.96 -10.617 -0.776
5.996 -10.603 -0.776
6.054 -10.628 -0.78
6.125 -10.675 -0.786
6.145 -10.67 -0.787
6.289 -10.843 -0.804
6.297 -10.778 -0.8
2.661 -4.493 -0.218
2.671 -4.477 -0.217
6.408 -10.659 -0.797
6.425 -10.648 -0.797
6.49 -10.681 -0.802
6.487 -10.601 -0.796
6.672 -10.827 -0.819
2.828 -4.529 -0.227
6.645 -10.633 -0.805
6.653 -10.571 -0.801
6.69 -10.593 -0.804
6.751 -10.615 -0.808
6.786 -10.598 -0.808
6.954 -10.786 -0.828
2.909 -4.453 -0.225
6.919 -10.585 -0.813
6.945 -10.516 -0.81
7.001 -10.529 -0.813
7.038 -10.512 -0.814
7.175 -10.645 -0.829
3.08 -4.512 -0.237
7.159 -10.478 -0.817
7.18 -10.403 -0.813
7.232 -10.408 -0.816
7.246 -10.359 -0.813
7.393 -10.499 -0.829
3.219 -4.515 -0.244
7.36 -10.313 -0.815
7.34 -10.251 -0.81
7.39 -10.252 -0.813
7.423 -10.231 -0.813
7.473 -10.232 -0.815
7.63 -10.379 -0.832
7.587 -10.185 -0.818
7.605 -10.176 -0.818
7.634 -10.149 -0.818
7.831 -10.343 -0.84
3.447 -4.5 -0.253
7.788 -10.152 -0.825
7.804 -10.107 -0.823
7.932 -10.207 -0.836
3.535 -4.51 -0.258
7.936 -10.113 -0.83
7.98 -10.104 -0.832
8.143 -10.245 -0.849
8.146 -10.117 -0.841
8.074 -9.963 -0.828
8.17 -10.049 -0.838
8.464 -10.215 -0.863
8.471 -10.092 -0.856
8.509 -10.073 -0.857
8.515 -10.048 -0.855
8.765 -10.148 -0.875
8.634 -9.932 -0.855
8.785 -9.948 -0.864
8.897 -10.012 -0.873
9.001 -10.001 -0.878
9.024 -9.964 -0.877
9.128 -10.016 -0.886
9.255 -10.091 -0.897
9.101 -9.892 -0.877
9.108 -9.837 -0.874
9.217 -9.83 -0.88
9.226 -9.778 -0.877
9.399 -9.9 -0.894
9.34 -9.683 -0.878
9.403 -9.688 -0.882
9.567 -9.796 -0.897
10.927 -11.053 -1.046
10.998 -11.09 -1.052
10.93 -10.952 -1.04
11.157 -11.111 -1.062
11.288 -11.171 -1.073
11.334 -11.076 -1.07
11.486 -11.155 -1.083
5.653 -5.386 -0.425
5.17 -4.892 -0.37
5.188 -4.878 -0.37
11.95 -11.211 -1.114
5.199 -4.812 -0.367
5.227 -4.807 -0.368
5.239 -4.788 -0.368
5.184 -4.707 -0.36
12.493 -11.251 -1.148
12.576 -11.254 -1.153
12.657 -11.292 -1.16
12.87 -11.337 -1.175
13.016 -11.394 -1.187
12.872 -11.196 -1.168
5.769 -4.936 -0.408
13.508 -11.493 -1.222
13.487 -11.329 -1.212
13.718 -11.451 -1.233
13.661 -11.257 -1.219
13.585 -11.159 -1.209
13.624 -11.12 -1.21
13.781 -11.176 -1.222
13.826 -11.069 -1.22
13.849 -11.016 -1.219
13.861 -10.955 -1.216
13.882 -10.936 -1.217
13.866 -10.853 -1.212
13.879 -10.793 -1.209
13.907 -10.745 -1.209
13.906 -10.674 -1.205
13.9 -10.6 -1.201
13.902 -10.567 -1.2
13.841 -10.453 -1.19
13.916 -10.44 -1.195
13.934 -10.386 -1.193
13.935 -10.318 -1.19
14.108 -10.378 -1.204
14.157 -10.244 -1.201
13.969 -10.041 -1.179
13.978 -9.981 -1.177
13.973 -9.911 -1.173
13.931 -9.816 -1.166
13.998 -9.797 -1.17
13.99 -9.759 -1.167
14.183 -9.828 -1.183
14.019 -9.584 -1.161
14.026 -9.524 -1.159
14.028 -9.365 -1.152
14.054 -9.318 -1.152
14.034 -9.178 -1.144
14.067 -9.138 -1.145
14.099 -9.033 -1.142
14.095 -8.999 -1.141
14.298 -9.003 -1.154
14.108 -8.821 -1.134
8.728 -5.37 -0.621
9.012 -5.487 -0.645
7.445 -4.495 -0.496
8.485 -5.055 -0.591
8.489 -5.021 -0.59
8.513 -5 -0.591
14.205 -8.272 -1.118
14.213 -8.217 -1.116
10.397 -5.959 -0.76
14.229 -7.989 -1.108
14.226 -7.9 -1.104
14.244 -7.851 -1.104
14.27 -7.807 -1.104
10.479 -5.682 -0.755
14.487 -7.75 -1.117
14.26 -7.599 -1.095
10.769 -5.688 -0.776
8.554 -4.478 -0.573
8.713 -4.527 -0.587
14.339 -7.354 -1.092
14.523 -7.362 -1.105
8.979 -4.506 -0.605
10.612 -5.288 -0.75
14.355 -7.051 -1.082
14.395 -6.987 -1.083
14.573 -6.961 -1.095
9.51 -4.496 -0.643
14.559 -6.786 -1.088
9.77 -4.508 -0.662
9.846 -4.524 -0.668
9.893 -4.508 -0.671
9.972 -4.507 -0.677
14.392 -6.408 -1.063
14.324 -6.27 -1.053
10.852 -4.682 -0.747
10.954 -4.686 -0.755
10.631 -4.507 -0.725
10.717 -4.504 -0.731
10.711 -4.462 -0.73
10.714 -4.424 -0.729
10.785 -4.434 -0.734
14.488 -5.859 -1.053
14.529 -5.823 -1.055
14.516 -5.765 -1.052
14.517 -5.712 -1.05
14.492 -5.65 -1.047
14.468 -5.614 -1.044
14.511 -5.579 -1.046
14.536 -5.536 -1.047
14.546 -5.487 -1.046
14.552 -5.438 -1.045
14.502 -5.367 -1.039
14.575 -5.342 -1.044
14.575 -5.316 -1.044
14.571 -5.263 -1.042
14.528 -5.196 -1.037
14.467 -5.122 -1.03
14.626 -5.127 -1.042
14.751 -5.119 -1.052
14.701 -5.05 -1.046
14.792 -5.056 -1.053
14.538 -4.917 -1.03
14.778 -4.947 -1.049
14.718 -4.876 -1.043
14.512 -4.756 -1.024
14.527 -4.711 -1.024
14.524 -4.66 -1.023
14.539 -4.639 -1.023
14.506 -4.579 -1.019
14.61 -4.561 -1.027
14.855 -4.587 -1.046
14.606 -4.459 -1.024
14.603 -4.408 -1.023
14.606 -4.384 -1.022
14.815 -4.346 -1.038
14.847 -4.305 -1.039
14.834 -4.25 -1.037
15.162 -4.293 -1.063
7.674 -2.134 -0.438
7.645 -2.112 -0.435
7.68 -2.096 -0.437
7.648 -2.062 -0.434
7.633 -2.032 -0.432
7.659 -2.013 -0.434
16.388 -4.228 -1.157
16.614 -4.259 -1.175
16.855 -4.265 -1.194
17.097 -4.269 -1.213
17.352 -4.275 -1.233
17.621 -4.283 -1.254
17.759 -4.258 -1.264
17.83 -4.216 -1.269
17.848 -4.191 -1.27
17.879 -4.139 -1.271
17.95 -4.096 -1.276
18.041 -4.057 -1.282
18.1 -4.011 -1.286
18.169 -3.966 -1.291
18.226 -3.919 -1.295
18.277 -3.9 -1.298
18.332 -3.852 -1.302
18.381 -3.802 -1.305
18.444 -3.754 -1.309
18.5 -3.705 -1.313
18.555 -3.656 -1.316
18.617 -3.607 -1.32
18.701 -3.593 -1.327
18.752 -3.542 -1.33
18.78 -3.486 -1.331
18.852 -3.439 -1.336
18.916 -3.389 -1.341
18.958 -3.335 -1.343
19.016 -3.315 -1.348
19.071 -3.263 -1.351
19.105 -3.207 -1.353
19.143 -3.151 -1.355
19.2 -3.099 -1.359
19.237 -3.043 -1.361
19.294 -2.99 -1.365
19.33 -2.964 -1.368
19.355 -2.906 -1.369
19.415 -2.853 -1.373
19.475 -2.799 -1.377
19.51 -2.742 -1.38
19.613 -2.693 -1.387
19.682 -2.64 -1.392
19.762 -2.619 -1.398
19.801 -2.561 -1.401
19.896 -2.51 -1.408
19.932 -2.451 -1.41
19.987 -2.394 -1.414
20.034 -2.336 -1.417
20.095 -2.279 -1.421
20.176 -2.256 -1.428
20.21 -2.196 -1.43
20.247 -2.136 -1.432
20.299 -2.077 -1.436
20.313 -2.014 -1.437
20.365 -1.955 -1.44
20.405 -1.894 -1.443
20.44 -1.865 -1.446
20.471 -1.803 -1.448
20.527 -1.743 -1.452
20.591 -1.683 -1.457
20.64 -1.622 -1.46
20.669 -1.559 -1.462
20.682 -1.494 -1.463
20.69 -1.462 -1.463
20.707 -1.398 -1.464
20.82 -1.34 -1.473
21.501 -1.317 -1.527
21.863 -1.271 -1.556
21.865 -1.202 -1.556
21.835 -1.166 -1.553
21.839 -1.097 -1.553
21.818 -1.028 -1.551
21.754 -0.956 -1.546
21.717 -0.886 -1.543
21.668 -0.816 -1.539
21.644 -0.747 -1.537
21.591 -0.711 -1.532
21.592 -0.643 -1.532
21.558 -0.574 -1.529
21.529 -0.506 -1.527
21.515 -0.438 -1.525
21.474 -0.369 -1.522
21.449 -0.302 -1.52
21.446 -0.234 -1.52
21.409 -0.2 -1.517
21.383 -0.133 -1.515
21.372 -0.065 -1.514
19.978 0.006 -1.516
19.986 0.069 -1.517
20.008 0.132 -1.519
20.007 0.195 -1.519
20.005 0.226 -1.519
20.022 0.289 -1.52
20.039 0.353 -1.522
20.06 0.416 -1.524
20.074 0.479 -1.525
20.092 0.543 -1.527
20.105 0.607 -1.528
20.127 0.639 -1.53
20.143 0.703 -1.532
20.147 0.766 -1.532
20.17 0.831 -1.534
20.189 0.895 -1.536
20.218 0.96 -1.539
20.231 1.024 -1.54
20.257 1.058 -1.543
20.274 1.122 -1.545
20.26 1.186 -1.544
20.286 1.251 -1.546
20.328 1.318 -1.55
20.387 1.386 -1.556
20.421 1.453 -1.559
20.448 1.487 -1.562
20.471 1.554 -1.564
20.514 1.622 -1.568
20.548 1.689 -1.571
20.585 1.758 -1.575
20.635 1.827 -1.58
20.678 1.897 -1.584
20.711 1.933 -1.587
20.747 2.002 -1.591
20.814 2.074 -1.597
20.849 2.144 -1.601
20.887 2.214 -1.605
20.94 2.286 -1.61
20.982 2.324 -1.614
21.042 2.398 -1.62
21.117 2.474 -1.627
21.18 2.549 -1.633
21.271 2.628 -1.642
21.334 2.704 -1.648
21.42 2.783 -1.656
21.514 2.83 -1.664
21.606 2.911 -1.673
21.717 2.996 -1.684
21.804 3.078 -1.692
21.876 3.158 -1.699
21.954 3.24 -1.707
22.019 3.32 -1.713
22.109 3.405 -1.722
22.192 3.454 -1.73
22.297 3.542 -1.74
22.355 3.623 -1.746
22.229 3.674 -1.736
22.074 3.72 -1.723
22.058 3.789 -1.723
22.064 3.861 -1.725
22.032 3.891 -1.722
21.957 3.949 -1.717
21.892 4.008 -1.712
21.85 4.071 -1.71
21.79 4.131 -1.706
21.749 4.194 -1.703
21.719 4.224 -1.701
21.698 4.29 -1.7
21.681 4.358 -1.7
21.655 4.423 -1.699
21.62 4.487 -1.697
21.59 4.552 -1.696
21.527 4.609 -1.692
21.475 4.633 -1.688
21.429 4.694 -1.685
21.383 4.754 -1.682
21.317 4.81 -1.678
21.258 4.866 -1.674
21.196 4.922 -1.67
21.126 4.976 -1.665
21.06 4.995 -1.66
21.003 5.051 -1.656
20.894 5.095 -1.648
20.824 5.147 -1.643
20.794 5.209 -1.642
20.716 5.258 -1.636
20.624 5.304 -1.63
20.556 5.321 -1.624
20.481 5.37 -1.619
20.418 5.422 -1.615
20.359 5.475 -1.611
20.278 5.521 -1.606
20.209 5.571 -1.601
20.191 5.634 -1.601
20.096 5.642 -1.593
20.009 5.685 -1.587
19.909 5.724 -1.58
19.862 5.778 -1.577
19.71 5.801 -1.565
19.587 5.831 -1.556
19.525 5.88 -1.552
18.833 5.703 -1.491
18.48 5.659 -1.46
18.273 5.658 -1.443
18.096 5.665 -1.429
17.918 5.671 -1.415
17.758 5.682 -1.402
17.6 5.661 -1.388
17.405 5.659 -1.372
17.265 5.673 -1.361
17.073 5.669 -1.345
16.906 5.673 -1.332
16.822 5.703 -1.326
16.591 5.683 -1.307
16.533 5.692 -1.302
16.528 5.748 -1.303
16.595 5.83 -1.311
16.351 5.802 -1.29
16.11 5.773 -1.27
15.973 5.781 -1.259
16.543 6.046 -1.313
16.623 6.105 -1.321
16.646 6.174 -1.325
16.681 6.246 -1.33
16.719 6.321 -1.336
16.725 6.383 -1.338
16.761 6.457 -1.343
16.8 6.533 -1.349
16.827 6.574 -1.352
16.854 6.646 -1.356
14.448 5.746 -1.136
14.398 5.778 -1.133
16.92 6.857 -1.368
16.963 6.937 -1.374
16.969 7.001 -1.377
16.998 7.045 -1.381
13.867 5.793 -1.091
17.036 7.186 -1.388
13.524 5.749 -1.062
13.526 5.8 -1.064
13.375 5.785 -1.052
13.22 5.767 -1.039
13.083 5.732 -1.027
12.983 5.736 -1.019
12.857 5.729 -1.009
12.714 5.713 -0.997
12.62 5.718 -0.99
12.595 5.754 -0.989
12.517 5.742 -0.983
12.097 5.595 -0.945
11.986 5.589 -0.936
11.641 5.472 -0.905
11.533 5.465 -0.896
11.473 5.481 -0.892
11.359 5.47 -0.883
11.288 5.457 -0.877
11.102 5.41 -0.861
11.056 5.431 -0.858
10.991 5.442 -0.853
10.965 5.472 -0.852
10.866 5.465 -0.845
10.813 5.481 -0.841
10.76 5.475 -0.837
10.686 5.48 -0.831
10.634 5.495 -0.828
10.496 5.466 -0.816
10.435 5.475 -0.812
10.425 5.512 -0.813
10.327 5.501 -0.805
10.143 5.423 -0.788
10.152 5.469 -0.79
10.059 5.46 -0.783
10.026 5.483 -0.781
10.037 5.53 -0.784
9.971 5.534 -0.779
9.922 5.548 -0.776
9.927 5.571 -0.778
9.889 5.591 -0.776
9.804 5.583 -0.769
9.75 5.593 -0.765
9.672 5.589 -0.759
9.464 5.507 -0.74
9.455 5.542 -0.741
9.376 5.515 -0.734
9.338 5.532 -0.732
9.235 5.51 -0.723
9.209 5.534 -0.723
9.032 5.466 -0.706
8.943 5.45 -0.699
8.916 5.472 -0.698
8.909 5.487 -0.698
8.853 5.491 -0.694
8.798 5.495 -0.691
8.788 5.527 -0.691
8.75 5.542 -0.689
8.523 5.435 -0.668
8.491 5.433 -0.666
8.496 5.474 -0.668
8.462 5.49 -0.666
8.37 5.467 -0.658
8.327 5.477 -0.656
8.262 5.471 -0.651
8.194 5.463 -0.645
8.168 5.464 -0.644
8.031 5.408 -0.631
7.966 5.401 -0.626
7.91 5.399 -0.622
7.881 5.416 -0.621
7.853 5.433 -0.62
7.826 5.45 -0.619
7.734 5.404 -0.61
7.691 5.41 -0.607
7.656 5.421 -0.605
7.629 5.439 -0.604
7.609 5.46 -0.604
7.619 5.504 -0.607
7.568 5.503 -0.603
7.518 5.484 -0.599
7.447 5.469 -0.593
7.44 5.499 -0.594
7.351 5.469 -0.587
7.326 5.486 -0.586
7.27 5.48 -0.582
7.226 5.482 -0.579
7.168 5.456 -0.573
7.139 5.469 -0.572
7.146 5.511 -0.575
7.077 5.493 -0.569
7.04 5.499 -0.567
7.075 5.563 -0.573
7.067 5.593 -0.574
7.037 5.587 -0.571
6.966 5.566 -0.565
6.935 5.577 -0.564
6.896 5.581 -0.562
6.86 5.587 -0.559
6.81 5.582 -0.556
6.769 5.585 -0.553
6.734 5.574 -0.55
6.711 5.59 -0.55
6.643 5.568 -0.544
6.562 5.535 -0.537
6.517 5.532 -0.534
6.469 5.527 -0.53
6.376 5.482 -0.522
6.323 5.453 -0.517
6.28 5.45 -0.514
6.257 5.465 -0.513
6.231 5.476 -0.512
6.144 5.434 -0.504
6.092 5.422 -0.5
6.053 5.421 -0.497
6.031 5.419 -0.496
6.017 5.44 -0.496
5.998 5.458 -0.496
5.92 5.42 -0.489
5.849 5.388 -0.483
5.804 5.381 -0.479
5.809 5.42 -0.482
5.787 5.416 -0.48
5.756 5.421 -0.479
5.733 5.433 -0.478
5.687 5.424 -0.475
5.656 5.428 -0.473
5.62 5.428 -0.471
5.603 5.445 -0.471
5.543 5.404 -0.464
5.532 5.427 -0.465
5.464 5.394 -0.459
5.429 5.392 -0.457
5.429 5.426 -0.459
5.364 5.395 -0.453
5.365 5.43 -0.455
5.345 5.427 -0.454
5.306 5.421 -0.451
5.252 5.399 -0.446
5.179 5.358 -0.44
5.146 5.357 -0.438
5.137 5.382 -0.439
5.11 5.387 -0.437
5.124 5.419 -0.44
5.047 5.371 -0.433
4.998 5.352 -0.428
4.974 5.36 -0.428
4.959 5.377 -0.428
4.914 5.362 -0.424
4.837 5.311 -0.416
4.85 5.342 -0.419
4.846 5.372 -0.421
4.852 5.413 -0.424
4.783 5.37 -0.417
4.753 5.37 -0.415
4.721 5.367 -0.413
4.696 5.372 -0.412
4.673 5.363 -0.41
4.658 5.379 -0.411
4.633 5.385 -0.41
4.566 5.34 -0.403
4.559 5.367 -0.404
4.551 5.392 -0.405
4.542 5.397 -0.405
4.479 5.356 -0.399
4.478 5.39 -0.401
4.427 5.363 -0.397
4.413 5.38 -0.397
4.385 5.38 -0.396
4.399 5.432 -0.4
4.366 5.408 -0.396
4.354 5.428 -0.397
4.334 5.438 -0.397
4.296 5.425 -0.394
4.268 5.425 -0.392
4.267 5.459 -0.395
4.203 5.412 -0.388
4.208 5.436 -0.39
4.209 5.473 -0.392
4.157 5.44 -0.387
4.13 5.44 -0.386
4.112 5.452 -0.386
4.109 5.484 -0.388
4.086 5.489 -0.387
4.089 5.511 -0.389
4.031 5.468 -0.383
3.976 5.429 -0.377
3.95 5.428 -0.376
3.914 5.415 -0.373
3.892 5.421 -0.373
3.86 5.412 -0.37
3.857 5.443 -0.372
3.858 5.462 -0.374
3.811 5.432 -0.369
3.807 5.464 -0.371
3.789 5.474 -0.371
3.758 5.466 -0.369
3.751 5.493 -0.371
3.752 5.531 -0.373
3.743 5.537 -0.373
3.728 5.552 -0.374
3.692 5.535 -0.371
3.701 5.587 -0.375
3.701 5.627 -0.378
3.668 5.613 -0.375
3.676 5.646 -0.378
3.699 5.721 -0.385
3.675 5.722 -0.384
3.676 5.764 -0.387
3.657 5.774 -0.386
3.646 5.797 -0.388
3.693 5.914 -0.398
3.695 5.959 -0.402
3.699 5.987 -0.404
3.704 6.038 -0.408
3.655 6 -0.403
3.654 6.041 -0.406
3.641 6.062 -0.407
3.641 6.106 -0.41
3.643 6.154 -0.414
3.656 6.197 -0.417
3.647 6.228 -0.419
3.683 6.336 -0.429
3.613 6.259 -0.42
3.641 6.356 -0.429
3.643 6.405 -0.432
3.652 6.469 -0.438
3.656 6.499 -0.44
3.696 6.62 -0.451
3.673 6.628 -0.45
3.647 6.629 -0.449
3.678 6.737 -0.459
3.741 6.905 -0.474
3.764 6.974 -0.48
3.762 7.024 -0.484
3.708 6.974 -0.478
3.696 7.005 -0.48
3.672 7.013 -0.479
3.639 7.004 -0.477
3.611 7.003 -0.476
3.598 7.005 -0.476
3.576 7.016 -0.476
3.547 7.013 -0.475
3.518 7.01 -0.473
3.487 7.003 -0.471
3.465 7.014 -0.471
3.437 7.014 -0.47
3.413 7.019 -0.47
3.395 7.01 -0.469
3.363 7.001 -0.467
3.339 7.006 -0.466
3.311 7.004 -0.465
3.284 7.004 -0.464
3.263 7.018 -0.464
3.233 7.01 -0.463
3.215 7 -0.461
3.185 6.992 -0.459
3.162 6.999 -0.459
3.139 7.007 -0.459
3.11 7.002 -0.458
3.094 7.024 -0.459
3.077 7.015 -0.457
3.044 7 -0.455
3.011 6.984 -0.453
2.992 7.001 -0.453
2.968 7.005 -0.453
2.946 7.014 -0.453
2.919 7.011 -0.452
2.905 7.008 -0.451
2.883 7.017 -0.451
2.856 7.015 -0.45
2.83 7.014 -0.449
2.806 7.018 -0.449
2.78 7.015 -0.448
2.752 7.009 -0.446
2.719 6.99 -0.444
2.71 7 -0.444
2.681 6.99 -0.442
2.652 6.979 -0.441
2.634 6.999 -0.442
2.605 6.987 -0.44
2.579 6.983 -0.439
2.553 6.982 -0.438
2.543 6.988 -0.438
2.522 6.998 -0.438
2.498 7 -0.438
2.467 6.982 -0.435
2.443 6.986 -0.435
2.426 7.006 -0.436
2.402 7.008 -0.436
2.385 6.995 -0.434
2.368 7.018 -0.436
2.336 6.993 -0.433
2.311 6.993 -0.432
2.287 6.994 -0.432
2.263 6.994 -0.431
2.246 7.018 -0.432
2.229 7.002 -0.431
2.204 6.998 -0.43
2.181 7.001 -0.429
2.152 6.985 -0.427
2.09 6.86 -0.415
2.067 6.861 -0.415
2.053 6.894 -0.417
2.04 6.888 -0.416
2.044 6.984 -0.424
2.023 6.994 -0.425
1.981 6.928 -0.418
1.975 6.993 -0.424
1.948 6.98 -0.422
1.929 6.996 -0.423
1.915 6.989 -0.422
1.892 6.99 -0.421
1.875 7.017 -0.423
1.849 7.007 -0.422
1.828 7.017 -0.422
1.808 7.028 -0.423
1.792 7.059 -0.425
1.784 7.075 -0.426
1.768 7.108 -0.429
1.747 7.118 -0.429
1.726 7.129 -0.429
1.707 7.148 -0.431
1.689 7.174 -0.433
1.666 7.178 -0.432
1.659 7.2 -0.434
1.641 7.224 -0.436
1.62 7.235 -0.436
1.603 7.268 -0.439
1.578 7.263 -0.438
1.56 7.291 -0.44
1.541 7.316 -0.442
1.534 7.338 -0.443
1.512 7.348 -0.444
1.491 7.363 -0.445
1.468 7.367 -0.445
1.444 7.368 -0.444
1.416 7.349 -0.442
1.386 7.318 -0.439
1.367 7.279 -0.436
1.333 7.221 -0.43
1.301 7.17 -0.425
1.27 7.127 -0.421
1.241 7.095 -0.418
1.215 7.072 -0.416
1.186 7.034 -0.412
1.172 7.02 -0.411
1.15 7.024 -0.411
1.124 7.006 -0.409
1.101 7 -0.408
1.079 7.005 -0.408
1.057 7.008 -0.408
1.036 7.016 -0.409
1.023 7.007 -0.408
1 7.003 -0.407
0.979 7.012 -0.408
0.954 6.995 -0.406
0.933 7.004 -0.406
0.91 6.995 -0.405
0.889 7.01 -0.406
0.877 7.003 -0.406
0.856 7.012 -0.406
0.83 6.985 -0.404
0.81 7.003 -0.405
0.788 7.006 -0.405
0.767 7.014 -0.405
0.745 7.014 -0.405
0.733 7.01 -0.405
0.711 7.018 -0.405
0.688 7 -0.404
0.666 7.002 -0.404
0.643 6.994 -0.403
0.622 7.008 -0.404
0.599 7.004 -0.403
0.588 7.003 -0.403
0.567 7.015 -0.404
0.544 7.003 -0.403
0.521 6.995 -0.402
0.5 7.004 -0.403
0.477 7.004 -0.402
0.455 7.001 -0.402
0.444 7 -0.402
0.422 6.995 -0.401
0.399 6.987 -0.401
0.378 7.008 -0.402
0.356 7.007 -0.402
0.333 6.99 -0.401
0.312 7.009 -0.402
0.3 6.99 -0.4
0.279 7.006 -0.402
0.257 7.005 -0.402
0.235 7.002 -0.401
0.213 7.007 -0.402
0.191 7.005 -0.401
0.169 7.008 -0.402
0.158 7.006 -0.401
0.136 7.003 -0.401
0.114 7.007 -0.401
0.092 7.013 -0.402
0.07 7.004 -0.401
0.048 7.002 -0.401
0.026 6.99 -0.4
0.015 6.998 -0.401
-0.007 7.006 -0.401
-0.029 7.01 -0.402
-0.051 7.014 -0.402
-0.073 7.008 -0.401
-0.095 6.997 -0.401
-0.117 7.003 -0.401
-0.129 7.027 -0.403
-0.151 7.012 -0.402
-0.173 7.012 -0.402
-0.194 7.007 -0.402
-0.217 7.015 -0.402
-0.239 7.012 -0.402
-0.26 7.001 -0.401
-0.271 6.999 -0.401
-0.294 7.01 -0.402
-0.316 7.019 -0.403
-0.337 6.992 -0.401
-0.359 6.991 -0.401
-0.382 7.01 -0.402
-0.404 7 -0.402
-0.415 7.012 -0.403
-0.436 6.994 -0.401
-0.459 7.005 -0.402
-0.48 6.992 -0.401
-0.503 6.994 -0.402
-0.524 6.986 -0.401
-0.546 6.979 -0.401
-0.557 6.99 -0.402
-0.579 6.988 -0.402
-0.602 6.988 -0.402
-0.625 6.998 -0.403
-0.646 6.99 -0.402
-0.669 6.998 -0.403
-0.691 6.998 -0.403
-0.713 6.994 -0.403
-0.726 7.008 -0.405
-0.747 7 -0.404
-0.768 6.99 -0.403
-0.791 6.995 -0.404
-0.813 6.993 -0.404
-0.835 6.992 -0.404
-0.859 7.001 -0.405
-0.868 6.986 -0.404
-0.891 6.989 -0.405
-0.912 6.987 -0.405
-0.935 6.986 -0.405
-0.956 6.981 -0.405
-0.98 6.989 -0.406
-1.001 6.978 -0.405
-1.011 6.975 -0.405
-1.036 6.989 -0.406
-1.055 6.968 -0.405
-1.079 6.975 -0.406
-1.104 6.993 -0.408
-1.129 7.007 -0.409
-1.148 6.986 -0.408
-1.161 6.998 -0.409
-1.183 6.99 -0.408
-1.208 7.004 -0.41
-1.232 7.012 -0.411
-1.254 7.008 -0.411
-1.275 7 -0.411
-1.297 6.994 -0.41
-1.312 7.014 -0.412
-1.335 7.018 -0.413
-1.359 7.021 -0.414
-1.382 7.021 -0.414
-1.404 7.016 -0.414
-1.421 6.989 -0.412
-1.446 7 -0.413
-1.458 6.999 -0.414
-1.481 7.001 -0.414
-1.503 6.996 -0.414
-1.522 6.979 -0.413
-1.553 7.013 -0.416
-1.572 6.995 -0.415
-1.596 7 -0.416
-1.605 6.989 -0.415
-1.632 7.004 -0.417
-1.651 6.987 -0.416
-1.673 6.984 -0.416
-1.695 6.978 -0.416
-1.722 6.99 -0.418
-1.747 7 -0.419
-1.753 6.976 -0.417
-1.777 6.979 -0.418
-1.804 6.994 -0.42
-1.824 6.979 -0.419
-1.847 6.979 -0.42
-1.868 6.967 -0.419
-1.896 6.984 -0.421
-1.907 6.981 -0.421
-1.932 6.987 -0.422
-1.956 6.988 -0.423
-1.981 6.992 -0.424
-2.002 6.984 -0.423
-2.026 6.985 -0.424
-2.056 7.003 -0.426
-2.073 6.98 -0.425
-2.082 6.971 -0.424
-2.104 6.966 -0.424
-2.124 6.954 -0.424
-2.153 6.97 -0.426
-2.173 6.956 -0.425
-2.199 6.962 -0.427
-2.221 6.957 -0.427
-2.233 6.957 -0.427
-2.255 6.95 -0.427
-2.283 6.96 -0.429
-2.3 6.94 -0.427
-2.334 6.966 -0.43
-2.359 6.97 -0.432
-2.382 6.967 -0.432
-2.393 6.963 -0.432
-2.424 6.98 -0.434
-2.452 6.991 -0.436
-2.478 6.994 -0.437
-2.506 7.003 -0.438
-2.531 7.001 -0.439
-2.548 6.98 -0.438
-2.563 6.987 -0.439
-2.591 6.996 -0.44
-2.612 6.984 -0.44
-2.638 6.987 -0.441
-2.655 6.966 -0.44
-2.684 6.976 -0.441
-2.706 6.969 -0.442
-2.717 6.965 -0.442
-2.75 6.984 -0.444
-2.771 6.974 -0.444
-2.798 6.976 -0.445
-2.823 6.975 -0.446
-2.846 6.969 -0.446
-2.87 6.964 -0.446
-2.897 7 -0.45
-2.929 7.013 -0.452
-2.945 6.991 -0.451
-2.964 6.974 -0.45
-2.986 6.965 -0.45
-3.012 6.965 -0.451
-3.035 6.959 -0.452
-3.047 6.956 -0.452
-3.075 6.959 -0.453
-3.1 6.956 -0.454
-3.124 6.952 -0.454
-3.155 6.962 -0.456
-3.178 6.956 -0.456
-3.204 6.953 -0.457
-3.22 6.959 -0.458
-3.25 6.967 -0.46
-3.29 6.994 -0.463
-3.311 6.982 -0.463
-3.337 6.981 -0.464
-3.362 6.977 -0.465
-3.383 6.965 -0.465
-3.408 6.988 -0.467
-3.423 6.963 -0.466
-3.445 6.952 -0.466
-3.478 6.963 -0.468
-3.501 6.954 -0.468
-3.528 6.953 -0.469
-3.559 6.96 -0.471
-3.59 6.966 -0.473
