ply
format ascii 1.0
comment Created by Open3D
element vertex 1796
property double x
property double y
property double z
end_header
-0.383795 0.127534 -0.321408
-0.403242 0.153443 -0.318008
-0.409413 0.16178 -0.303999
-0.425562 0.183388 -0.296101
-2.79947 3.3005 -1.7063
-3.00065 3.56639 -1.69862
-3.23002 3.87118 -1.68973
-3.00204 3.57469 -1.44717
-3.00164 3.57597 -1.32347
-2.98943 3.56321 -1.19594
-2.99767 3.5773 -1.07873
-3.00186 3.58597 -0.960669
-3.02543 3.58149 -0.842476
-3.08642 3.66447 -0.738626
-3.13829 3.73423 -0.627898
-3.17336 3.78356 -0.512169
-3.21164 3.83712 -0.394522
-3.34473 4.01361 -0.281535
-13.6824 17.592 -0.559141
-13.6696 17.5897 -0.0347724
-13.6682 17.596 0.489455
-13.6575 17.5965 1.0179
-13.6406 17.589 1.54253
-13.5538 17.4891 2.05738
-13.5565 17.5006 2.58886
-13.532 17.4829 3.11419
-13.5215 17.4837 3.64538
-13.5416 17.5184 4.19298
-0.33704 0.0708735 -0.353587
-0.326781 0.057638 -0.326656
-0.345765 0.0830021 -0.327111
-0.361635 0.104408 -0.323454
-0.380828 0.130272 -0.321389
-0.399121 0.154719 -0.317178
-0.40741 0.166132 -0.304754
-0.42108 0.184806 -0.295359
-2.77827 3.31703 -1.70632
-2.97257 3.57848 -1.69609
-3.20134 3.88616 -1.68797
-3.00811 3.63079 -1.46101
-2.99905 3.62205 -1.33264
-2.99005 3.61188 -1.20522
-2.99124 3.61673 -1.0846
-2.99781 3.62883 -0.96664
-3.02093 3.625 -0.847713
-3.07855 3.70308 -0.742293
-3.13174 3.77696 -0.631429
-3.16179 3.82024 -0.514258
0.00131121 -0.376148 -0.0206546
-3.3282 4.04654 -0.282327
-13.5947 17.6988 -0.560122
-13.5694 17.6734 -0.0349818
-13.5313 17.6373 0.488112
-13.5218 17.6393 1.01548
-13.5417 17.674 1.54288
-13.5486 17.6979 2.0723
-13.5431 17.7053 2.60667
-13.5251 17.6894 3.13643
-13.5237 17.7023 3.67392
-13.533 17.7295 4.22339
-0.332394 0.07047 -0.351528
-0.330474 0.0683038 -0.332524
-0.345233 0.0882557 -0.328974
-0.359933 0.108363 -0.324335
-0.381089 0.137119 -0.323949
-0.39274 0.153033 -0.314718
-0.404223 0.168892 -0.304738
-0.420059 0.190597 -0.296802
-2.75471 3.33037 -1.70498
-2.94979 3.59598 -1.69611
-3.1722 3.89881 -1.68561
-3.01012 3.6824 -1.4732
-2.9955 3.66604 -1.3413
-2.9867 3.65599 -1.21311
-2.98914 3.66264 -1.09214
-2.99575 3.67483 -0.973359
-3.00963 3.65851 -0.850999
-3.06919 3.74023 -0.745677
-3.1291 3.82395 -0.635661
-3.79884 4.72664 -0.6183
0.00126889 -0.37571 -0.0206313
-3.3182 4.08694 -0.283586
-13.5321 17.8334 -0.561995
-13.5356 17.8463 -0.0352689
-13.5274 17.8502 0.491698
-13.5202 17.8553 1.02317
-13.5338 17.8819 1.55387
-13.5476 17.9154 2.08815
-13.5475 17.9304 2.62772
-13.5246 17.9076 3.1606
-13.5191 17.9153 3.70117
-13.5254 17.9388 4.25382
-0.330851 0.0741437 -0.352535
-0.325922 0.0678271 -0.330546
-0.340463 0.0878044 -0.327078
-0.35499 0.107899 -0.322525
-0.38138 0.144099 -0.326503
-0.390802 0.157177 -0.315517
-0.401084 0.171613 -0.304723
-0.415671 0.191937 -0.296058
-2.72882 3.34051 -1.70226
-2.92236 3.60722 -1.69358
-3.14631 3.91583 -1.68505
-3.01622 3.7404 -1.48759
-2.99502 3.71486 -1.35148
-2.9945 3.71597 -1.22562
-2.99012 3.71336 -1.10092
-2.99667 3.72571 -0.981192
-3.00863 3.70646 -0.857208
-3.06307 3.78217 -0.749901
-3.7103 4.66442 -0.755581
-3.78471 4.76968 -0.620775
0.00122657 -0.375273 -0.0206078
-3.31372 4.13531 -0.285323
-13.5182 18.0355 -0.565878
-13.5311 18.0615 -0.0355814
-13.5228 18.0653 0.495327
-13.5201 18.0768 1.03115
-13.5334 18.1033 1.56596
-13.5443 18.1334 2.104
-13.5357 18.1368 2.646
-13.5137 18.1151 3.18284
-13.5172 18.1351 3.7297
-13.5241 18.1598 4.28682
-0.324149 0.0709075 -0.348432
-0.323303 0.0701229 -0.330528
-0.337796 0.090139 -0.327063
-0.351153 0.108939 -0.321609
-0.375218 0.142385 -0.323914
-0.390951 0.164267 -0.317945
-0.395778 0.171298 -0.303166
-0.41571 0.199262 -0.298229
-2.70511 3.35349 -1.70092
-2.90046 3.62593 -1.69424
-3.12158 3.93429 -1.68508
-3.36569 4.27331 -1.67052
-2.99413 3.76385 -1.36167
-2.99027 3.76034 -1.23351
-2.99056 3.7642 -1.10971
-2.99025 3.76717 -0.986797
0.00126141 -0.37493 -0.0205889
-3.05891 3.82743 -0.754682
-3.67073 4.67172 -0.75352
-3.72691 4.75312 -0.616328
0.00126141 -0.37493 -0.0205889
-3.31701 4.19519 -0.287717
-13.5188 18.2608 -0.570429
-13.521 18.2723 -0.0358983
-13.4973 18.255 0.498232
-13.4476 18.2016 1.0336
-13.5273 18.3203 1.57764
-13.539 18.3519 2.11984
-13.4917 18.3018 2.65826
-13.5091 18.3344 3.20701
-13.5097 18.3507 3.75727
-13.516 18.375 4.31835
-0.324662 0.0774137 -0.351477
-0.319751 0.0709274 -0.329533
-0.331967 0.0881422 -0.324228
-0.350479 0.114304 -0.323388
-0.371162 0.143448 -0.323043
-0.386706 0.165487 -0.317117
-0.393698 0.175556 -0.303919
-0.413535 0.203595 -0.298942
-2.68293 3.36987 -1.70094
-2.87625 3.64142 -1.69363
-3.09333 3.94797 -1.68332
-3.34251 4.29991 -1.67276
-2.99725 3.81913 -1.37389
-2.99274 3.81641 -1.24464
-2.98748 3.81251 -1.11767
-2.98956 3.81889 -0.99463
-2.9994 3.79447 -0.868012
-3.05239 3.87161 -0.75919
-3.63348 4.68189 -0.751928
-3.68923 4.76364 -0.615056
0.00121909 -0.374492 -0.0205655
-3.32205 4.25838 -0.290307
-13.5195 18.4899 -0.575079
-13.5207 18.507 -0.0362427
-13.4852 18.4661 0.501719
-13.4496 18.4319 1.04202
-13.5206 18.5468 1.58986
-13.5296 18.5749 2.13585
-13.3736 18.3651 2.65597
-13.5025 18.5614 3.232
-13.5027 18.5773 3.78644
-13.5081 18.5937 4.35061
-0.318958 0.0754607 -0.348401
-0.32514 0.0845589 -0.337365
-0.332322 0.0949238 -0.327028
-0.347547 0.116699 -0.323377
-0.36804 0.145998 -0.32303
-0.384595 0.169614 -0.317915
-0.392553 0.181295 -0.305449
-0.420818 0.221648 -0.306214
-2.65594 3.37804 -1.69754
-2.84909 3.6542 -1.69173
-3.06538 3.96349 -1.68216
-3.31219 4.31481 -1.67114
-2.99683 3.87205 -1.38509
-2.9944 3.87059 -1.2553
-2.98584 3.86203 -1.12604
-2.98803 3.86859 -1.00209
-2.99746 3.84478 -0.874554
-3.04508 3.91373 -0.763415
-3.60227 4.70216 -0.751735
0.00130122 -0.374111 -0.0205444
0.00130122 -0.374111 -0.0205444
-3.34068 4.34365 -0.294124
-13.5101 18.7154 -0.579549
-13.511 18.7255 -0.0365663
-13.4817 18.6997 0.50574
-13.4358 18.6506 1.04961
-13.5115 18.7666 1.60167
-13.5257 18.8026 2.15261
-13.5116 18.7985 2.7061
-13.497 18.7866 3.257
-13.4955 18.8004 3.81528
-13.5018 18.8252 4.38508
-0.318395 0.0805891 -0.350424
-0.321492 0.0854404 -0.336366
-0.332646 0.101572 -0.329832
-0.34371 0.117739 -0.322457
-0.361943 0.144073 -0.320444
-0.382532 0.173702 -0.318716
-0.388277 0.182384 -0.304665
-0.422709 0.232103 -0.309843
-2.63427 3.39369 -1.69756
-2.82143 3.66468 -1.6892
-3.03819 3.97839 -1.681
-3.28734 4.33737 -1.67228
-3.00326 3.93402 -1.39934
-2.98878 3.9153 -1.26319
-2.986 3.91485 -1.13525
-2.98825 3.92163 -1.0103
-2.99127 3.88825 -0.879791
-3.04087 3.96078 -0.768481
-3.53298 4.66626 -0.743611
-3.59228 4.75501 -0.609153
0.0012589 -0.373673 -0.020521
-13.5212 18.9506 -1.13681
-13.5077 18.9474 -0.584249
-13.5073 18.9557 -0.0369085
-13.5033 18.9661 0.510713
-13.4871 18.9591 1.06234
-13.5038 18.9918 1.61389
-13.5165 19.0261 2.16881
-13.5032 19.0232 2.72668
-13.486 19.0075 3.28116
-13.4931 19.0338 3.84607
-13.493 19.05 4.41844
-0.314718 0.0813355 -0.34939
-0.317892 0.0862833 -0.335368
-0.325883 0.0980859 -0.326056
-0.341853 0.121505 -0.323344
-0.361034 0.149627 -0.322138
-0.375157 0.170266 -0.315443
-0.383019 0.182031 -0.303103
-0.437265 0.261015 -0.322217
-2.61138 3.40762 -1.6969
-2.80031 3.68436 -1.69051
-3.01743 4.00255 -1.68341
-3.25466 4.34863 -1.66956
-2.99821 3.98037 -1.40851
-2.98723 3.96654 -1.27293
-2.98678 3.96955 -1.14487
-2.98342 3.96831 -1.01702
-2.99029 3.93984 -0.88666
-3.03154 4.00139 -0.772429
-3.12052 4.13339 -0.664545
-3.54796 4.75482 -0.606756
0.00121658 -0.373236 -0.0204977
-13.5107 19.1748 -1.14544
-13.4996 19.175 -0.588811
-13.4992 19.1835 -0.0372422
-13.4961 19.1953 0.514644
-13.4833 19.1931 1.07085
-13.4984 19.2241 1.62667
-13.5129 19.2615 2.1863
-13.4993 19.2582 2.74863
-13.482 19.2421 3.30754
-13.4884 19.2679 3.87686
-13.4899 19.2866 4.45438
-0.309233 0.0793609 -0.346306
-0.316177 0.0899375 -0.336333
-0.32314 0.100326 -0.326041
-0.342036 0.128263 -0.326026
-0.356948 0.150558 -0.321268
-0.375135 0.177338 -0.317873
-0.379803 0.184657 -0.303087
-2.43233 3.1909 -1.70912
-2.58753 3.41994 -1.69555
-2.77474 3.69777 -1.68925
-2.98456 4.00917 -1.67926
-3.22524 4.36457 -1.66848
-2.99589 4.0315 -1.41921
-2.98406 4.01626 -1.28221
-2.98478 4.02096 -1.15367
-2.9827 4.02165 -1.02522
-2.98655 3.9883 -0.892878
-3.02539 4.04701 -0.777213
-3.10231 4.16316 -0.66621
0.00125142 -0.372893 -0.0204787
0.00125142 -0.372893 -0.0204787
-13.4914 19.3897 -1.1535
-13.4926 19.408 -0.593523
-13.4933 19.4183 -0.037591
-13.4935 19.4351 0.518843
-13.484 19.4377 1.07991
-13.4942 19.4619 1.63985
-13.5105 19.5025 2.20434
-13.4977 19.5004 2.77151
-13.4734 19.4739 3.33336
-13.4814 19.5024 3.90763
-13.4846 19.5239 4.49032
-0.30945 0.0857938 -0.349354
-0.310615 0.0878744 -0.333372
-0.320396 0.102566 -0.326026
-0.334166 0.12328 -0.321514
-0.352986 0.151544 -0.320394
-0.36983 0.177019 -0.316224
-0.380699 0.193375 -0.306159
-2.39718 3.18364 -1.69894
-2.56177 3.43094 -1.69352
-2.7481 3.70935 -1.68735
-2.95392 4.01876 -1.67631
-3.19596 4.38246 -1.66796
-2.9985 4.09087 -1.43244
-2.97637 4.06171 -1.29011
-2.98047 4.07156 -1.16204
-2.98175 4.07724 -1.0338
-2.98353 4.03854 -0.89942
-3.01798 4.09319 -0.782
-3.09061 4.20283 -0.669272
0.0012091 -0.372456 -0.0204552
0.0012091 -0.372456 -0.0204552
-13.4778 19.6164 -1.16223
-13.4902 19.6517 -0.59852
-13.4863 19.6627 -0.0379517
-13.4864 19.6721 0.522946
-13.4723 19.668 1.08814
-13.4842 19.7028 1.65302
-13.4978 19.7398 2.22163
-13.4937 19.7432 2.79439
-13.4657 19.7184 3.36083
-13.4764 19.7514 3.94067
-13.477 19.7617 4.52626
-0.311534 0.0952138 -0.354444
-0.307871 0.0901143 -0.333356
-0.317558 0.104883 -0.326009
-0.333227 0.128705 -0.323292
-0.350846 0.155539 -0.321236
-0.369589 0.184112 -0.318656
-0.38963 0.214433 -0.315412
-2.36878 3.18735 -1.69386
-2.5381 3.44488 -1.69286
-2.72587 3.72914 -1.68866
-2.9268 4.03505 -1.67574
-3.16022 4.3905 -1.66413
-3.00299 4.15571 -1.4472
-2.97795 4.12186 -1.30217
-2.98098 4.1303 -1.17251
-2.97909 4.13121 -1.04202
-2.98361 4.09594 -0.907269
-3.01339 4.14436 -0.787629
-3.07001 4.23139 -0.670707
0.00124394 -0.372113 -0.0204364
0.00124394 -0.372113 -0.0204364
-13.4409 19.8196 -1.16945
-13.4764 19.89 -0.603286
-13.4778 19.9093 -0.0383199
-13.4767 19.9171 0.527179
-13.4724 19.9278 1.09782
-13.4763 19.9508 1.66675
-13.4871 19.9844 2.23966
-13.4838 19.989 2.81725
-13.46 19.9702 3.38941
-13.4646 19.9945 3.97241
-13.4722 20.0156 4.56514
-0.305039 0.0916511 -0.350342
-0.310937 0.100977 -0.339227
-0.313881 0.105633 -0.325053
-0.328348 0.12803 -0.321479
-0.345825 0.154984 -0.319504
-0.363462 0.18206 -0.316193
-0.402484 0.241737 -0.327752
-2.34717 3.19976 -1.69315
-2.51257 3.45314 -1.69014
-2.70014 3.74205 -1.6874
-2.90343 4.05545 -1.67696
-3.13257 4.4069 -1.66361
-3.0044 4.21543 -1.46044
-2.98153 4.18276 -1.31468
-2.98798 4.19646 -1.18505
-2.98083 4.18938 -1.05134
-2.98062 4.14807 -0.914137
-3.0099 4.19463 -0.793252
-3.06315 4.2793 -0.674939
0.00124891 -0.371637 -0.0204108
-3.2086 4.50649 -0.433099
-13.3232 19.8954 -1.16957
-13.4747 20.1431 -0.608529
-13.4774 20.1569 -0.0386741
-13.4704 20.1637 0.531504
-13.4626 20.1692 1.10659
-13.4752 20.1981 1.68076
-13.4866 20.233 2.25862
-13.4718 20.228 2.83943
-13.4535 20.2096 3.41661
-13.4629 20.2416 4.00576
-13.4696 20.2695 4.60439
-0.30239 0.0938136 -0.350326
-0.306279 0.100272 -0.337248
-0.311137 0.107873 -0.325035
-0.332269 0.140738 -0.327757
-0.352639 0.172533 -0.328058
-0.362334 0.187632 -0.317807
0.00120659 -0.371199 -0.0203874
-2.32346 3.20893 -1.69098
-2.48637 3.46163 -1.68742
-2.66814 3.74523 -1.68229
-2.87476 4.06774 -1.6752
-3.10598 4.42691 -1.66419
-3.03989 4.32886 -1.49044
-2.98274 4.24275 -1.32674
-2.97964 4.24194 -1.19217
-2.98107 4.24813 -1.06066
-2.97824 4.20192 -0.921334
-3.00409 4.24379 -0.798601
-3.0536 4.32387 -0.678707
0.00120659 -0.371199 -0.0203874
0.00120659 -0.371199 -0.0203874
-13.1465 19.88 -1.16457
-13.4673 20.3919 -0.613633
-13.4656 20.3991 -0.0390357
-13.4639 20.4142 0.535918
-13.4526 20.4146 1.11554
-13.4725 20.4551 1.69531
-13.4813 20.4865 2.27776
-13.4683 20.4843 2.86391
-13.4486 20.4636 3.44575
-13.4596 20.4984 4.04041
-13.4623 20.5206 4.6429
-0.297826 0.0930276 -0.348268
-0.306479 0.106871 -0.340173
-0.320725 0.129322 -0.337245
-0.344781 0.167155 -0.342118
-0.372997 0.211444 -0.348611
-0.371901 0.210124 -0.328383
0.00124143 -0.370856 -0.0203684
-2.30187 3.22116 -1.69027
-2.46528 3.47794 -1.68812
-2.64535 3.76245 -1.68296
-2.84705 4.08133 -1.67404
-3.07316 4.43703 -1.66146
-3.34708 4.86997 -1.65353
-2.97913 4.29633 -1.33695
-2.98142 4.30394 -1.20347
-2.97873 4.30375 -1.06925
-2.97746 4.25923 -0.929182
-3.00524 4.3047 -0.805909
-3.05014 4.37851 -0.683877
-3.13753 4.5188 -0.566905
0.00124143 -0.370856 -0.0203684
-12.9919 19.897 -1.16146
-13.4596 20.6447 -0.618829
-13.46 20.6552 -0.0394142
-13.4571 20.6686 0.540413
-13.4435 20.6655 1.12477
-13.4694 20.716 1.71014
-13.4746 20.7421 2.29707
-13.4634 20.7428 2.88862
-13.4477 20.7282 3.47654
-13.4505 20.7509 4.07408
-13.4526 20.7724 4.68141
-0.299739 0.10243 -0.353357
-0.30179 0.106033 -0.338197
-0.325453 0.143478 -0.344751
-0.353165 0.187626 -0.352889
-0.393787 0.252094 -0.370025
-0.40558 0.271292 -0.359336
-2.15042 3.0253 -1.70312
-2.27613 3.22687 -1.68665
-2.4434 3.49443 -1.68883
-2.61945 3.77487 -1.6817
-2.81829 4.09322 -1.67227
-3.04144 4.45071 -1.65984
0.0011991 -0.370419 -0.0203451
-2.97319 4.34896 -1.34669
-2.97965 4.36329 -1.21394
-2.97184 4.35499 -1.07672
-2.97195 4.31009 -0.935725
-2.99979 4.35801 -0.811818
-3.04513 4.43173 -0.688808
-3.26493 4.78272 -0.594288
-3.18492 4.66075 -0.441382
-12.845 19.9246 -1.15902
-13.4538 20.9047 -0.624227
-13.4525 20.9211 -0.0398081
-13.4553 20.9356 0.545227
-13.4416 20.9323 1.13482
-13.4516 20.9665 1.72385
-13.4647 21.0058 2.31693
-13.4612 21.0104 2.91448
-13.4351 20.9874 3.50593
-13.4406 21.0146 4.10936
-13.4488 21.038 4.72287
-0.293291 0.0988287 -0.349253
-0.299 0.108311 -0.338177
-0.325275 0.150379 -0.347553
-0.353685 0.196202 -0.356467
-0.403487 0.276279 -0.382008
-0.546259 0.504676 -0.480743
-2.12043 3.02278 -1.69541
-2.26063 3.25015 -1.69104
-2.41711 3.50253 -1.68611
-2.59186 3.78596 -1.6798
-2.78872 4.10545 -1.67051
-3.01256 4.46686 -1.65932
-3.05653 4.5417 -1.53981
-2.96751 4.40105 -1.35644
-2.96985 4.409 -1.22107
-2.96947 4.41255 -1.08567
-2.97032 4.36985 -0.943902
-2.99769 4.41587 -0.818567
-3.03442 4.47867 -0.692814
0.00123395 -0.370076 -0.0203261
-3.17803 4.71493 -0.444379
-12.6937 19.9517 -1.15649
-13.4437 21.1712 -0.629727
-13.4451 21.1836 -0.0401931
-13.446 21.2038 0.549981
-13.4364 21.2071 1.14512
-13.4476 21.2354 1.73922
-13.4561 21.2678 2.3368
-13.4442 21.2675 2.93848
-13.429 21.2534 3.53672
-13.4389 21.2882 4.14689
-13.4387 21.3067 4.76431
-0.294222 0.106776 -0.353322
-0.295293 0.108926 -0.33718
-0.32032 0.149605 -0.345658
-0.348541 0.195587 -0.354655
-0.396952 0.274397 -0.379422
-0.537375 0.501999 -0.477472
-2.10081 3.03533 -1.69543
-2.23776 3.2604 -1.6896
-2.39177 3.51192 -1.68408
-2.56881 3.80276 -1.68047
-2.75891 4.11534 -1.66815
-2.98159 4.47961 -1.65769
-3.10011 4.67672 -1.57591
-2.95938 4.45006 -1.36526
-2.9587 4.45312 -1.22777
-2.96859 4.4735 -1.09537
-2.97199 4.43421 -0.953058
-2.99305 4.47057 -0.824753
-3.03157 4.53709 -0.698448
0.00123892 -0.3696 -0.0203005
-3.15924 4.75054 -0.445825
-12.5523 19.9859 -1.15451
-13.4338 21.4342 -0.63518
-13.4361 21.4484 -0.0405869
-13.442 21.4771 0.55492
-13.4229 21.465 1.15462
-13.4421 21.5067 1.75472
-13.4511 21.5405 2.35776
-13.4368 21.5364 2.96434
-13.4223 21.5233 3.56805
-13.4326 21.5593 4.18378
-13.4317 21.5769 4.8065
-0.286096 0.100033 -0.347178
-0.292519 0.111033 -0.337163
-0.318292 0.153356 -0.346582
-0.346151 0.199472 -0.35554
-0.398869 0.286322 -0.384551
-0.544724 0.52583 -0.48805
-2.07639 3.03995 -1.69158
-2.21396 3.26886 -1.68743
-2.37232 3.5309 -1.68615
-2.54178 3.81308 -1.67857
-2.73197 4.1299 -1.66758
-2.95064 4.4922 -1.65607
-3.05296 4.66513 -1.5668
-2.97994 4.54724 -1.3875
-2.95512 4.51061 -1.23782
-2.95797 4.51953 -1.10172
-2.96689 4.4887 -0.960256
-2.99089 4.53039 -0.831783
-3.02394 4.58881 -0.70315
0.00119659 -0.369162 -0.0202772
-3.15976 4.81843 -0.449953
-12.414 20.0241 -1.15281
-13.4306 21.7132 -0.641063
-13.4339 21.7292 -0.0409939
-13.4365 21.7529 0.559902
-13.4233 21.7506 1.16557
-13.4339 21.7787 1.77023
-13.4434 21.8139 2.37873
-13.4391 21.8262 2.99295
-13.4201 21.8056 3.60132
-13.4287 21.8394 4.22228
-13.423 21.8496 4.84906
-0.289579 0.11235 -0.354314
-0.289793 0.1131 -0.337148
-0.314395 0.154127 -0.345623
-0.349332 0.212626 -0.361814
-0.395119 0.289067 -0.384534
-0.537662 0.526158 -0.486412
-2.05856 3.05538 -1.69314
-2.18999 3.27713 -1.68526
-2.34302 3.53363 -1.68138
-2.51862 3.82966 -1.67923
-2.70901 4.15094 -1.6694
-2.91958 4.50455 -1.65444
-3.00501 4.65147 -1.55718
-2.95854 4.57638 -1.39078
-2.97012 4.60015 -1.2558
-2.95597 4.58077 -1.11142
-2.96127 4.54332 -0.967454
-2.98923 4.59202 -0.839094
-3.01995 4.64737 -0.708788
-3.09624 4.77861 -0.585622
-3.16482 4.89512 -0.454784
-12.2953 20.0939 -1.15292
-13.4267 21.9963 -0.647046
-13.4278 22.0091 -0.0414013
-13.4229 22.0206 0.564654
-13.4199 22.0354 1.17643
-13.43 22.0632 1.78669
-13.4299 22.0828 2.39913
-13.4344 22.1101 3.02065
-13.4101 22.0803 3.6332
0.00123144 -0.368819 -0.0202582
0.00123144 -0.368819 -0.0202582
-0.28332 0.108594 -0.350207
-0.287829 0.116642 -0.338113
-0.313129 0.15935 -0.347489
-0.339629 0.204324 -0.355505
-0.393144 0.294861 -0.386232
-0.523004 0.514088 -0.478248
-2.03783 3.06596 -1.69239
-2.16894 3.29006 -1.68528
-2.31787 3.54465 -1.68002
-2.48957 3.83636 -1.67605
-2.67611 4.15538 -1.66524
-2.88863 4.5189 -1.65336
-2.96713 4.65412 -1.55264
-2.94598 4.62281 -1.39867
-2.9575 4.64675 -1.26293
-2.97242 4.67649 -1.12856
-2.95212 4.59288 -0.973679
-2.98599 4.65431 -0.846408
-3.01426 4.70432 -0.714195
-3.08581 4.82925 -0.589219
-3.17119 4.9777 -0.460043
-12.1558 20.1287 -1.15113
-13.4169 22.2749 -0.652889
-13.3834 22.2384 -0.0417741
0.00118911 -0.368382 -0.0202348
-14.2068 23.6623 1.25867
-14.1776 23.634 1.90614
-13.4311 22.3906 2.42339
-13.4269 22.3945 3.04834
-13.4014 22.3715 3.66729
-13.657 22.8258 4.37928
-13.7825 23.0505 5.07646
-0.283051 0.115107 -0.353255
-0.281492 0.1128 -0.33417
-0.311768 0.164649 -0.349354
-0.338918 0.211339 -0.358187
-0.387372 0.294447 -0.384505
-0.514232 0.511162 -0.474977
-2.01932 3.08162 -1.69395
-2.1444 3.29849 -1.68311
-2.29627 3.55995 -1.68073
-2.46071 3.84498 -1.6735
-2.64821 4.16994 -1.66467
-2.86244 4.53924 -1.6545
-2.94221 4.68043 -1.55521
-2.94758 4.69221 -1.41305
-2.95415 4.70804 -1.27382
-2.96009 4.72282 -1.13492
-2.94061 4.64135 -0.979577
-2.98609 4.72133 -0.854561
-3.00919 4.76535 -0.720069
-3.07912 4.88918 -0.59375
-9.32352 15.5543 -1.32584
-12.036 20.2044 -1.15152
-13.4034 22.5617 -0.658886
-13.3933 22.5556 -0.0422243
-13.8195 23.3062 0.593484
-13.8014 23.2962 1.23455
-13.7678 23.2503 1.86869
-13.4141 22.6642 2.44416
-13.4214 22.6974 3.07809
-13.3818 22.6405 3.69806
-13.6115 23.0564 4.40776
-13.5989 23.0558 5.05964
-0.279439 0.115643 -0.352218
-0.280462 0.117833 -0.336115
-0.307841 0.165288 -0.348399
-0.335595 0.213737 -0.358169
-0.38364 0.297021 -0.384489
-0.500964 0.500359 -0.467626
-1.99664 3.08884 -1.69164
-2.12854 3.31887 -1.68677
-2.26987 3.56703 -1.67801
-2.43808 3.86066 -1.67417
-2.61995 4.18001 -1.66291
-2.8293 4.54772 -1.65176
-2.93604 4.7357 -1.56693
-2.94942 4.76348 -1.42789
-2.95304 4.77242 -1.28554
0.00118163 -0.367601 -0.0201925
-2.93348 4.69625 -0.986775
-2.97762 4.77489 -0.86047
-3.00256 4.8226 -0.725473
-3.0747 4.95201 -0.598659
-9.23068 15.6065 -1.32584
-11.9213 20.2806 -1.1521
-13.402 22.8565 -0.665211
-13.3968 22.8684 -0.0426724
-13.5003 23.0688 0.585069
-13.4855 23.0547 1.21749
-13.4863 23.0771 1.84833
-13.4144 22.9636 2.46789
-13.4201 22.9947 3.10763
-13.3723 22.9324 3.73242
-13.4275 23.0401 4.39012
-13.4123 23.0347 5.03841
-0.27757 0.11911 -0.353222
-0.27682 0.118238 -0.33512
-0.304849 0.167415 -0.348382
-0.331449 0.214399 -0.357257
-0.380795 0.301118 -0.385332
-0.501498 0.513086 -0.472502
-1.97546 3.09708 -1.69011
-2.10329 3.32307 -1.68314
-2.24593 3.57674 -1.67666
-2.4097 3.86634 -1.67098
-2.59356 4.19333 -1.66234
-2.79798 4.55711 -1.64958
-2.93334 4.79785 -1.58068
-3.03498 4.98166 -1.48299
-2.95419 4.84196 -1.29851
-2.98828 4.90684 -1.16771
-3.06481 4.99208 -1.03993
-2.97042 4.82964 -0.866663
-3.00009 4.88626 -0.731812
-3.07451 5.02134 -0.604318
-9.21939 15.7951 -1.33714
-11.8256 20.382 -1.15419
-13.3948 23.1468 -0.67139
-13.3945 23.1675 -0.0431073
-13.4068 23.2103 0.58655
-13.3891 23.1909 1.22048
-13.3956 23.2237 1.85377
-13.4107 23.262 2.49142
-13.4189 23.2979 3.13786
-13.3865 23.2622 3.77315
-13.3899 23.28 4.42087
-13.3898 23.3012 5.07948
-0.272137 0.116619 -0.350143
-0.275695 0.123348 -0.337064
-0.303441 0.172754 -0.350244
-0.328841 0.218306 -0.358141
-0.382037 0.313278 -0.390461
-0.496257 0.516419 -0.472491
-1.95852 3.11563 -1.69322
-2.08066 3.33619 -1.68316
-2.22066 3.58722 -1.6753
-2.3829 3.87984 -1.67036
-2.56471 4.20787 -1.66176
-2.7678 4.57243 -1.64906
-2.92443 4.85665 -1.59291
-2.94045 4.88788 -1.45248
-2.95577 4.92006 -1.31316
-2.95313 4.9202 -1.16663
-3.09603 5.12231 -1.06115
-2.96483 4.89243 -0.873978
-3.0059 4.9701 -0.740727
-3.07272 5.09374 -0.610163
-9.21036 16.0046 -1.34986
-11.7101 20.4662 -1.15515
-13.3792 23.457 -0.677933
-13.3809 23.4719 -0.0435582
-13.3771 23.4869 0.591372
-13.3689 23.494 1.23185
-13.3821 23.5295 1.87145
-13.3926 23.5698 2.51511
-13.3981 23.6017 3.16713
-13.3717 23.5664 3.80888
-13.377 23.5978 4.46482
-13.3724 23.6114 5.12827
-0.268525 0.117155 -0.349101
-0.270309 0.120826 -0.334101
-0.296902 0.168769 -0.346464
-0.32897 0.226885 -0.361719
-0.378087 0.315873 -0.390446
-0.488373 0.515014 -0.470032
-1.93659 3.12401 -1.69169
-2.0584 3.34693 -1.68245
-2.19984 3.60558 -1.67738
-2.35836 3.89389 -1.67038
-2.52995 4.20793 -1.65641
-2.73563 4.58411 -1.64743
-2.92983 4.93815 -1.61225
-2.95339 4.98574 -1.47426
-2.94693 4.97901 -1.32321
-2.94916 4.98798 -1.17746
-3.06147 5.13534 -1.0602
-2.96148 4.96053 -0.882134
-3.01467 5.05896 -0.750339
-3.06833 5.1605 -0.615448
-9.19625 16.2094 -1.36216
-11.6054 20.5617 -1.15685
-13.3687 23.7632 -0.684465
-13.369 23.7859 -0.0440184
-13.3692 23.7984 0.597134
-13.3657 23.8141 1.24434
-13.3713 23.8464 1.88996
-13.3821 23.8882 2.54009
-13.3895 23.9138 3.19804
-13.3642 23.8904 3.84765
-13.3642 23.9124 4.50845
-13.3639 23.9244 5.17854
-0.264788 0.117634 -0.348063
-0.267459 0.122837 -0.334084
-0.296256 0.175579 -0.349269
-0.321992 0.222951 -0.358109
-0.373201 0.316983 -0.389572
-0.4806 0.513361 -0.467576
-1.91578 3.1358 -1.6917
-2.03722 3.3611 -1.68319
-2.17237 3.61035 -1.67397
-2.33301 3.90813 -1.67041
-2.50093 4.21991 -1.65525
-2.70706 4.60019 -1.64746
0.0011368 -0.365907 -0.0201012
-2.93737 5.03041 -1.4817
0.0011368 -0.365907 -0.0201012
-2.94368 5.05192 -1.18753
-3.01638 5.13128 -1.05601
-2.96123 5.03354 -0.891124
-3.01013 5.12765 -0.757152
-3.07083 5.24364 -0.622423
-8.13612 14.5003 -1.22006
-8.2364 14.6975 -0.835776
-13.3547 24.0793 -0.691203
-13.3591 24.0998 -0.0444825
-13.3559 24.1164 0.602976
-13.3529 24.1337 1.25663
-13.3576 24.1547 1.90791
-13.3774 24.2137 2.566
-13.3752 24.2323 3.22939
-13.353 24.2041 3.88505
-13.355 24.2305 4.55305
-13.3499 24.2439 5.22954
-0.261193 0.117998 -0.347027
-0.265418 0.126285 -0.335049
-0.295657 0.182351 -0.352074
-0.321997 0.231474 -0.361689
-0.368553 0.317899 -0.388699
-0.495497 0.553492 -0.486309
-1.89471 3.14556 -1.69094
-2.01371 3.3679 -1.68102
-2.14946 3.62323 -1.67399
-2.30373 3.91152 -1.66658
-2.47706 4.23757 -1.65646
-2.67473 4.60931 -1.64528
0.00117164 -0.365564 -0.0200822
-2.91913 5.07163 -1.48822
-2.93605 5.10598 -1.34582
-2.95238 5.14143 -1.20319
-2.96401 5.11079 -1.04887
-2.96966 5.12405 -0.902922
-3.01147 5.20644 -0.765367
-3.08018 5.33875 -0.630709
-7.95651 14.3735 -1.2062
-7.99677 14.4619 -0.820628
-13.3489 24.3968 -0.698071
-12.5701 22.9741 -0.043503
-13.3444 24.4346 0.608868
-13.3456 24.4494 1.26893
-13.3522 24.4848 1.92753
-13.3681 24.5271 2.59081
-13.3682 24.5505 3.26122
-13.3442 24.5289 3.9241
-13.3518 24.5557 4.59928
-13.3486 24.5732 5.28349
-0.263335 0.128996 -0.353137
-0.26187 0.126612 -0.334052
-0.291748 0.182817 -0.351118
-0.315333 0.227442 -0.358074
-0.362023 0.31554 -0.386117
0.00117661 -0.365088 -0.0200566
-1.87336 3.15331 -1.68941
-1.99395 3.38317 -1.68249
-2.1264 3.63591 -1.67401
-2.27456 3.91673 -1.66339
-2.44518 4.24214 -1.6529
-2.63967 4.61315 -1.64143
-2.87392 5.05748 -1.63268
-3.1537 5.59077 -1.62341
-2.96853 5.24645 -1.37551
-2.96278 5.24086 -1.22071
-2.92224 5.10687 -1.04498
-2.98277 5.22532 -0.916401
-3.01581 5.29021 -0.774279
-3.06599 5.38962 -0.634308
-7.83016 14.3421 -1.20011
0.00117661 -0.365088 -0.0200566
-12.1866 22.5565 -0.645949
0.00117661 -0.365088 -0.0200566
-13.3435 24.7687 0.615209
-13.3401 24.7857 1.28214
-13.3416 24.8121 1.94686
-13.3534 24.8581 2.61688
-13.3639 24.8908 3.29557
-13.3368 24.8632 3.96452
-13.3336 24.881 4.64451
-13.3389 24.904 5.33708
-0.256443 0.123343 -0.348013
-0.260574 0.131705 -0.335995
-0.289299 0.186438 -0.352046
-0.31344 0.232857 -0.359857
-0.365595 0.332542 -0.393814
0.00121145 -0.364745 -0.0200377
-1.8515 3.16308 -1.68865
-1.97246 3.39697 -1.68324
-2.10425 3.65025 -1.67471
-2.24821 3.92892 -1.66277
-2.41778 4.25695 -1.65293
-2.61185 4.63038 -1.64201
-2.83541 5.0629 -1.62915
-3.12111 5.6127 -1.62437
-2.94242 5.27596 -1.37846
-2.92948 5.25653 -1.22037
-2.92928 5.19956 -1.05904
-2.99295 5.32345 -0.92932
-3.02661 5.39279 -0.785536
-3.08825 5.51565 -0.645787
-7.72126 14.3414 -1.19656
0.00121145 -0.364745 -0.0200377
-12.0318 22.5935 -0.645196
-12.1919 22.9109 -0.0437147
-13.3287 25.1048 0.621446
-13.3221 25.1163 1.29488
-13.3359 25.156 1.96742
-13.3453 25.1981 2.64407
-13.3443 25.2203 3.32806
-13.3295 25.2053 4.00606
-13.3303 25.231 4.69458
-13.3239 25.2429 5.39175
-0.255164 0.128268 -0.350039
-0.258532 0.135152 -0.33696
-0.283664 0.18381 -0.349208
-0.307538 0.230294 -0.357144
-0.357386 0.327058 -0.389511
0.00116913 -0.364308 -0.0200143
-1.8337 3.17898 -1.69098
-1.94735 3.40204 -1.68034
-2.07777 3.65806 -1.67267
-2.22517 3.94559 -1.66407
-2.39022 4.2695 -1.65235
-2.5804 4.64277 -1.64094
-2.80322 5.07781 -1.62868
-3.07761 5.61602 -1.62024
-3.40182 6.25217 -1.6086
-2.97961 5.43675 -1.25502
-2.96627 5.34984 -1.08385
-3.00377 5.42754 -0.943088
-3.04645 5.51286 -0.799126
-6.98012 13.1115 -1.44984
-7.62004 14.3607 -1.19458
-7.65769 14.4411 -0.812554
0.00116913 -0.364308 -0.0200143
-13.3143 25.425 -0.0464329
-13.3175 25.4446 0.627817
-13.3151 25.4647 1.30862
-13.3213 25.5011 1.98784
-13.3329 25.5482 2.67198
-13.3394 25.5744 3.36401
-13.3125 25.5468 4.04702
-13.3099 25.5664 4.74142
-13.3118 25.5838 5.44716
-0.249159 0.124147 -0.345932
-0.250771 0.127807 -0.331054
-0.280453 0.185958 -0.349188
-0.304805 0.234145 -0.358026
-0.349099 0.321479 -0.385212
0.00112681 -0.36387 -0.0199909
-1.81261 3.19022 -1.691
-1.92662 3.4173 -1.68181
-2.0537 3.66869 -1.672
-2.19699 3.95401 -1.66217
-2.36007 4.2789 -1.65058
-2.54719 4.64942 -1.6382
-2.77257 5.09816 -1.62973
-3.04662 5.64094 -1.62213
-3.36103 6.26682 -1.60739
-3.7329 7.00737 -1.58475
-2.97992 5.46079 -1.10117
-3.03263 5.56686 -0.962451
-5.69335 10.779 -1.49278
-6.8846 13.123 -1.44676
-7.50332 14.3426 -1.18975
-7.51248 14.3746 -0.806696
0.00112681 -0.36387 -0.0199909
-13.3071 25.7797 -0.0469494
-13.3036 25.798 0.63444
-13.2992 25.8144 1.32226
-13.3076 25.8447 2.00826
-13.3186 25.8914 2.69934
-13.3272 25.9336 3.40019
-13.3018 25.8974 4.08965
-13.3047 25.9284 4.79342
-13.296 25.9364 5.5044
-0.251749 0.13672 -0.353067
-0.253439 0.14046 -0.33791
-0.275627 0.184763 -0.347293
-0.301374 0.236315 -0.358009
-0.345385 0.32388 -0.385194
-0.46546 0.563041 -0.482983
-1.79129 3.1994 -1.69024
-1.90463 3.42671 -1.6811
-2.02952 3.6791 -1.67134
-2.1728 3.96667 -1.66218
-2.33323 4.2907 -1.65001
-2.51738 4.66269 -1.63767
-2.73857 5.10707 -1.62773
-3.00587 5.64663 -1.61892
-3.32218 6.28242 -1.60659
-3.6838 7.01277 -1.58144
-3.01475 5.61395 -1.12631
-4.82 9.19699 -1.53489
-5.6067 10.7676 -1.48702
-6.78796 13.1254 -1.44294
-7.39615 14.3415 -1.18633
-7.43108 14.4252 -0.807198
-7.90716 15.3809 -0.445367
-13.2953 26.1334 -0.0474704
-13.2943 26.1571 0.641253
-13.296 26.1745 1.33665
-13.3003 26.2085 2.03019
-13.317 26.2561 2.72909
-13.3071 26.2621 3.43292
-13.2893 26.2522 4.13283
-13.2934 26.2747 4.84285
-13.2858 26.2852 5.56167
-0.246618 0.133826 -0.349989
-0.24826 0.137611 -0.334948
-0.273397 0.188363 -0.348213
-0.296377 0.235107 -0.356199
-0.341327 0.326247 -0.38518
0.00111933 -0.36309 -0.0199486
-1.76812 3.20318 -1.68715
-1.8786 3.42966 -1.67747
-2.0087 3.69621 -1.67341
-2.1445 3.97278 -1.65963
-2.30298 4.29762 -1.64764
-2.48924 4.67924 -1.63825
-2.70527 5.11971 -1.62674
-2.96688 5.6555 -1.61665
-3.28177 6.30058 -1.60622
-3.6356 7.02602 -1.57963
-4.15833 7.9966 -1.56297
-4.76221 9.2197 -1.53412
-5.53911 10.7885 -1.4857
-6.66291 13.0636 -1.43253
-7.28292 14.327 -1.18193
-7.32886 14.4275 -0.805221
-7.74887 15.2903 -0.441831
-13.2799 26.4879 -0.0479909
-13.2772 26.4966 0.647621
-13.2668 26.5018 1.3492
-21.904 44.0334 3.39523
-19.6499 39.5037 4.08468
-19.62 39.4643 5.12985
-19.5832 39.4286 6.17057
-19.5488 39.3974 7.21666
-19.528 39.3764 8.27953
-0.24675 0.141953 -0.354054
-0.245333 0.139528 -0.334929
-0.270156 0.190378 -0.348197
-0.295229 0.242164 -0.358876
-0.343591 0.341596 -0.392026
0.00120146 -0.362709 -0.0199275
-1.74768 3.21566 -1.68794
-1.85774 3.44456 -1.67894
-1.98215 3.70344 -1.67137
-2.11619 3.98067 -1.65773
-2.27528 4.31158 -1.64767
-2.45332 4.68221 -1.63441
-2.6693 5.12912 -1.62474
-2.93195 5.67521 -1.61714
-3.23533 6.30634 -1.60292
-3.58915 7.04262 -1.57856
-4.10774 8.01977 -1.5627
-4.70358 9.24469 -1.53363
-5.46585 10.8073 -1.48392
0.00120146 -0.362709 -0.0199275
-7.17722 14.3327 -1.17909
-7.20857 14.4048 -0.801826
-7.62876 15.2807 -0.440464
-15.0048 30.4339 -0.0523012
-19.4742 39.6281 0.970722
-20.7029 42.1928 2.14216
0.00120146 -0.362709 -0.0199275
-19.3739 39.5394 4.07603
-19.353 39.5179 5.12142
-19.3157 39.4803 6.16025
-19.2781 39.4421 7.20339
-19.2568 39.4196 8.26406
-0.240685 0.137566 -0.349953
-0.24312 0.142958 -0.335893
-0.26679 0.192338 -0.348183
-0.291626 0.244316 -0.35886
-0.333117 0.331059 -0.38515
0.00115914 -0.362271 -0.0199041
-1.72721 3.22799 -1.68873
-1.83267 3.45089 -1.67677
-1.95637 3.71213 -1.67002
-2.09371 4.00041 -1.66032
-2.24503 4.32027 -1.6459
-2.42418 4.69878 -1.63499
-2.63418 5.14007 -1.62324
-2.89184 5.68405 -1.61487
-3.19571 6.32577 -1.60297
-3.54596 7.06592 -1.57899
-4.0511 8.03026 -1.56015
-4.64216 9.26388 -1.5323
-5.38996 10.8203 -1.48143
-6.51174 13.1605 -1.43463
0.00115914 -0.362271 -0.0199041
-7.10865 14.4225 -0.800619
-7.48991 15.2306 -0.438033
0.00115914 -0.362271 -0.0199041
-19.1899 39.646 0.967947
-19.1885 39.6829 2.00843
-19.1381 39.6173 3.03703
-19.1067 39.5912 4.06923
-19.0843 39.5662 5.11253
-19.0406 39.5143 6.14745
-19.0094 39.4886 7.19078
-18.9892 39.4679 8.25006
-0.237852 0.139405 -0.349933
-0.237911 0.139975 -0.332935
-0.262851 0.19267 -0.347226
-0.285044 0.239901 -0.355249
-0.328456 0.33167 -0.384278
0.00111682 -0.361834 -0.0198807
-1.70647 3.23831 -1.68874
-1.81131 3.4614 -1.67678
-1.93518 3.72682 -1.6714
-2.06599 4.00559 -1.65777
-2.21717 4.32972 -1.64472
-2.39254 4.70575 -1.6328
-2.60091 5.14982 -1.62175
-2.8522 5.6882 -1.61166
-3.15529 6.33455 -1.60092
-3.50154 7.07656 -1.57717
-4.00092 8.05024 -1.55956
-4.5832 9.27931 -1.53069
-5.32208 10.8444 -1.48058
-6.41154 13.1515 -1.42985
0.00111682 -0.361834 -0.0198807
-6.99937 14.413 -0.798073
-7.39326 15.2528 -0.437619
0.00111682 -0.361834 -0.0198807
-18.9361 39.7075 0.966394
-18.9117 39.6779 2.00243
-18.8806 39.6519 3.0312
-18.8589 39.6278 4.0621
-18.8264 39.5989 5.10275
-18.7898 39.5613 6.13799
-18.7617 39.5235 7.17821
-18.7707 39.5827 8.25157
-0.236496 0.144236 -0.35196
-0.239551 0.151214 -0.338804
-0.259752 0.19457 -0.347207
-0.285451 0.250031 -0.359726
-0.324493 0.33396 -0.384263
0.00115166 -0.361491 -0.0198617
-1.68481 3.24489 -1.6872
-1.79004 3.47392 -1.67752
-1.91073 3.73651 -1.67074
-2.0408 4.0178 -1.65779
-2.19011 4.34283 -1.64474
-2.36495 4.72329 -1.63393
-2.56498 5.15633 -1.61923
-2.82058 5.71206 -1.61354
-3.10972 6.34119 -1.59803
-3.45152 7.08512 -1.57461
-3.94891 8.06219 -1.55765
-4.51919 9.28809 -1.52795
-5.25596 10.8671 -1.47972
-6.31995 13.1532 -1.42638
-6.91044 14.4305 -1.17745
0.00115166 -0.361491 -0.0198617
-7.28795 15.2629 -0.436872
0.00115166 -0.361491 -0.0198617
-18.685 39.7551 0.964633
-18.6471 39.7141 1.99843
-18.6187 39.6934 3.02576
-18.5861 39.6636 4.05402
-18.565 39.6404 5.09387
-18.5279 39.601 6.12714
-18.494 39.5682 7.16592
-18.5123 39.63 8.2387
-0.232824 0.144505 -0.35092
-0.235039 0.149916 -0.336822
-0.259383 0.202933 -0.350953
-0.281818 0.252051 -0.359713
-0.327886 0.352725 -0.39282
-0.40166 0.513104 -0.449478
-1.66258 3.25354 -1.68644
-1.76493 3.47981 -1.67535
-1.8871 3.74792 -1.67075
-2.01477 4.03023 -1.65781
-2.16049 4.35261 -1.64357
-2.3292 4.72326 -1.62953
-2.53221 5.1719 -1.61926
-2.78227 5.7215 -1.61173
-3.07104 6.35938 -1.59807
-3.40281 7.09277 -1.57205
-3.89797 8.08407 -1.55738
-4.45935 9.30535 -1.52661
-5.18506 10.8895 -1.47864
-6.22962 13.1692 -1.42424
-6.83344 14.4886 -1.17898
-6.89971 14.6478 -0.806387
-7.17763 15.2681 -0.435984
0.00110934 -0.361053 -0.0198383
-18.4125 39.7912 0.962453
-18.3824 39.7664 1.99516
-18.3562 39.7315 3.02018
-18.3304 39.7161 4.04816
-18.2952 39.6799 5.08453
-18.2671 39.6409 6.11657
-18.2368 39.6153 7.15494
-18.252 39.6895 8.22803
-0.228454 0.143087 -0.348861
-0.229211 0.145343 -0.332878
-0.256904 0.206421 -0.351878
-0.278311 0.254126 -0.359695
-0.317092 0.3402 -0.385088
-0.401115 0.525764 -0.454357
-1.64245 3.26513 -1.68723
-1.74739 3.5005 -1.67974
-1.86267 3.75743 -1.67008
-1.99017 4.04388 -1.65847
-2.13337 4.36545 -1.64359
-2.30151 4.74057 -1.63066
-2.4915 5.16735 -1.6137
-2.74325 5.72897 -1.60944
-3.02744 6.36664 -1.5956
-3.36302 7.11982 -1.57359
-3.83865 8.08343 -1.5532
-4.3962 9.31502 -1.52416
-5.11775 10.9142 -1.47801
-6.14012 13.1799 -1.42171
-6.75597 14.5462 -1.18051
-6.78756 14.6312 -0.803556
0.00119147 -0.360672 -0.0198173
0.00119147 -0.360672 -0.0198173
-18.1488 39.8259 0.960374
-18.1198 39.8028 1.99135
-18.093 39.766 3.01447
-18.0674 39.7506 4.04064
-18.0431 39.7379 5.0782
-18.0137 39.6952 6.10848
-17.9731 39.6462 7.14138
-17.9888 39.7226 8.21295
-0.225544 0.144832 -0.348842
-0.228427 0.151799 -0.335807
-0.251428 0.203504 -0.349037
-0.273981 0.254465 -0.358781
-0.314495 0.345713 -0.386787
0.00114915 -0.360234 -0.0197938
-1.62077 3.27319 -1.68647
-1.71977 3.499 -1.67464
-1.83813 3.7688 -1.67009
-1.96403 4.054 -1.65784
-2.10378 4.37283 -1.64182
-2.26723 4.74572 -1.62792
-2.46042 5.18377 -1.61424
-2.70622 5.74374 -1.60902
-2.98665 6.38306 -1.59523
-3.31138 7.12383 -1.57029
-3.7803 8.08421 -1.54934
-4.33633 9.33596 -1.52339
-5.05107 10.9402 -1.47763
-6.04731 13.1826 -1.41843
-6.68612 14.6284 -1.18388
-6.70192 14.6723 -0.803764
-6.94744 15.2391 -0.433273
0.00114915 -0.360234 -0.0197938
-17.8878 39.8644 0.958435
-17.8614 39.8467 1.988
-17.8263 39.8092 3.00931
-17.8025 39.7974 4.03423
0.00114915 -0.360234 -0.0197938
0.00114915 -0.360234 -0.0197938
0.00114915 -0.360234 -0.0197938
-17.7339 39.7721 8.20156
-0.218381 0.137144 -0.342693
-0.22609 0.155172 -0.33677
-0.249522 0.208618 -0.350902
-0.270349 0.256484 -0.358765
-0.307427 0.341388 -0.383341
0.00110683 -0.359797 -0.0197704
-1.60063 3.28655 -1.68802
-1.69983 3.51636 -1.67758
-1.81204 3.77456 -1.66805
-1.93778 4.06598 -1.65786
-2.07714 4.38912 -1.64304
-2.23927 4.76262 -1.62905
-2.42439 5.19165 -1.61223
-2.66789 5.75256 -1.60719
-2.94468 6.39344 -1.59359
-3.26433 7.13425 -1.56847
-3.72767 8.10145 -1.54842
-4.27233 9.343 -1.52065
-4.97995 10.9614 -1.47654
-5.96045 13.2042 -1.41703
-6.64538 14.7712 -1.19206
-6.63993 14.7745 -0.807113
0.00110683 -0.359797 -0.0197704
0.00110683 -0.359797 -0.0197704
-9.72845 21.8723 0.519276
-9.71625 21.8677 1.08709
-9.71061 21.8676 1.65191
-9.71259 21.8954 2.22107
0.00110683 -0.359797 -0.0197704
0.00110683 -0.359797 -0.0197704
0.00110683 -0.359797 -0.0197704
-17.4689 39.8158 8.18869
-0.219647 0.148227 -0.348809
-0.221023 0.152074 -0.333809
-0.244809 0.207174 -0.349006
-0.264701 0.253556 -0.356049
-0.305527 0.348579 -0.385895
0.00114167 -0.359454 -0.0197516
-1.57669 3.28939 -1.68494
-1.67595 3.52303 -1.67613
-1.78743 3.78358 -1.66738
-1.91072 4.07398 -1.65659
-2.04822 4.39785 -1.64186
-2.20594 4.767 -1.62631
-2.38927 5.19879 -1.61022
-2.62959 5.76105 -1.60538
-2.89876 6.39449 -1.58987
-3.21879 7.1479 -1.5674
-3.67339 8.1105 -1.54619
-4.21169 9.35695 -1.51903
-4.91383 10.9884 -1.47639
-5.87357 13.2186 -1.41507
-6.63101 14.9781 -1.20519
-6.60804 14.9412 -0.813891
0.00114167 -0.359454 -0.0197516
0.00114167 -0.359454 -0.0197516
-17.3633 39.9486 0.954776
-17.3364 39.9288 1.98112
-17.3206 39.9157 3.00135
-16.5527 38.1709 3.84979
-17.2616 39.8637 5.05392
-17.2255 39.8028 6.07679
-17.1931 39.7701 7.1075
-17.2102 39.8529 8.17546
-0.218738 0.154633 -0.351857
-0.21878 0.15537 -0.334772
-0.238854 0.202553 -0.345223
-0.263227 0.260407 -0.35873
-0.30141 0.35068 -0.385882
0.00109935 -0.359016 -0.0197281
-1.55639 3.30049 -1.68572
-1.65498 3.53644 -1.6776
-1.76281 3.79454 -1.6674
-1.88511 4.08528 -1.65661
-2.02299 4.41523 -1.64368
-2.17249 4.77339 -1.62412
-2.35046 5.19683 -1.60568
-2.5909 5.7716 -1.60402
-2.85859 6.412 -1.58991
-3.17264 7.16363 -1.5667
-3.62222 8.12654 -1.54526
-4.14698 9.36585 -1.51657
-4.84765 11.0151 -1.47623
-5.78427 13.2269 -1.41254
-6.61015 15.1828 -1.21805
-6.6066 15.1836 -0.824568
0.00109935 -0.359016 -0.0197281
0.00109935 -0.359016 -0.0197281
-17.1074 39.9932 0.953114
0.00109935 -0.359016 -0.0197281
-17.0464 39.9354 2.99482
-17.0153 39.9052 4.01337
-17.0096 39.9152 5.0476
-16.9707 39.8664 6.07064
-16.9394 39.8355 7.10071
-16.9731 39.9392 8.17256
-0.213625 0.151567 -0.348775
-0.217033 0.160201 -0.336721
-0.237569 0.209255 -0.348028
-0.258199 0.259065 -0.356916
-0.298067 0.354553 -0.386721
0.00113419 -0.358673 -0.0197091
-1.53529 3.31176 -1.68651
-1.63251 3.54627 -1.67762
-1.73667 3.79986 -1.66535
-1.85954 4.09654 -1.65663
-1.99182 4.41847 -1.6407
-2.14291 4.7862 -1.62414
-2.32062 5.21608 -1.60723
-2.5511 5.77606 -1.60127
-2.81999 6.42648 -1.58953
-3.12451 7.16715 -1.56376
-3.56788 8.13914 -1.54368
-4.09009 9.38816 -1.51636
-4.77999 11.0441 -1.47631
-5.69045 13.2302 -1.40944
-6.58747 15.3811 -1.23048
-6.60905 15.4496 -0.836398
0.00113419 -0.358673 -0.0197091
0.00113419 -0.358673 -0.0197091
-16.9908 40.3896 0.959869
0.00113419 -0.358673 -0.0197091
-17.0702 40.6486 3.0404
-16.7688 39.9486 4.00791
-19.5534 46.6926 5.88563
-16.8087 40.1322 6.09574
-16.6815 39.8497 7.08622
0.00113419 -0.358673 -0.0197091
-0.213431 0.159487 -0.352846
-0.212853 0.158632 -0.334739
-0.23568 0.214198 -0.349895
-0.256075 0.264196 -0.358698
-0.296664 0.363272 -0.390139
0.00113916 -0.358197 -0.0196837
-1.51339 3.31728 -1.68497
-1.60571 3.54572 -1.67325
-1.71483 3.81543 -1.66742
-1.83094 4.10054 -1.65408
-1.96279 4.42667 -1.63953
-2.11317 4.79882 -1.62417
-2.28848 5.22971 -1.60725
-2.51343 5.78563 -1.59991
-2.77593 6.43445 -1.58748
-3.07975 7.18589 -1.56381
-3.51742 8.15206 -1.54243
-4.02407 9.38813 -1.51277
-4.71169 11.06 -1.47498
-5.6084 13.2474 -1.40803
-7.07796 16.8304 -1.3389
-6.58677 15.6474 -0.844795
0.00113916 -0.358197 -0.0196837
0.00113916 -0.358197 -0.0196837
-17.0636 41.2168 0.977114
-17.0508 41.2311 2.02978
-17.0629 41.3062 3.08172
-16.5105 40.0017 4.00298
0.00113916 -0.358197 -0.0196837
-16.552 40.1719 6.08684
-16.4158 39.8827 7.07429
0.00113916 -0.358197 -0.0196837
-0.211016 0.162768 -0.35385
-0.211756 0.165186 -0.337664
-0.231664 0.214436 -0.348934
-0.253761 0.269481 -0.360478
-0.288962 0.357058 -0.385835
0.00109684 -0.35776 -0.0196602
-1.49288 3.33 -1.68653
-1.58673 3.56599 -1.67764
-1.68718 3.81688 -1.66401
-1.80662 4.11702 -1.65602
-1.93437 4.43868 -1.63955
-2.08129 4.80601 -1.62253
-2.26324 5.26336 -1.61287
-2.47655 5.79678 -1.59902
-2.73389 6.44348 -1.58584
-3.03187 7.19303 -1.56161
-3.46311 8.16401 -1.54085
-3.96709 9.40974 -1.51255
-4.63933 11.0771 -1.47365
-5.51636 13.2532 -1.40531
-6.95632 16.8158 -1.33478
-6.60711 15.9718 -0.859582
0.00109684 -0.35776 -0.0196602
0.00109684 -0.35776 -0.0196602
-17.0426 41.8778 0.990159
-17.0301 41.8935 2.05703
-17.05 41.9686 3.1233
-16.2525 40.0337 3.99641
-20.1994 49.8978 6.25689
-16.2932 40.2046 6.07713
-16.1618 39.9221 7.0643
0.00109684 -0.35776 -0.0196602
-0.206742 0.161272 -0.351784
-0.208692 0.166742 -0.337649
-0.222442 0.20138 -0.340452
-0.24813 0.266382 -0.357762
-0.286241 0.362515 -0.387533
0.00113168 -0.357417 -0.0196413
-1.47167 3.33897 -1.68654
-1.56062 3.5668 -1.674
-1.66451 3.83041 -1.6654
-1.78004 4.12593 -1.6554
-1.90812 4.45371 -1.64076
-2.05222 4.82015 -1.6231
-2.22937 5.27315 -1.61188
-2.43602 5.79867 -1.59581
-2.69025 6.44856 -1.58337
-2.98544 7.20344 -1.56017
-3.41104 8.17699 -1.53959
-3.90481 9.41807 -1.51037
-4.56458 11.0819 -1.47092
-5.43049 13.2666 -1.40353
-6.83367 16.7967 -1.33037
0.00113168 -0.357417 -0.0196413
0.00113168 -0.357417 -0.0196413
0.00113168 -0.357417 -0.0196413
-17.0048 42.4941 1.00219
-16.9853 42.4928 2.08128
0.00113168 -0.357417 -0.0196413
-15.9999 40.0771 3.99113
-19.8798 49.938 6.24706
-16.0005 40.149 6.05443
-15.9094 39.9635 7.05496
-15.9319 40.0662 8.11933
-0.202532 0.159567 -0.349726
-0.205799 0.168315 -0.337632
-0.224985 0.217838 -0.348902
-0.245308 0.269832 -0.358645
-0.280219 0.359425 -0.384946
0.00108936 -0.356979 -0.0196178
-1.4503 3.34774 -1.68655
-1.54001 3.57929 -1.67547
-1.64236 3.8456 -1.66747
-1.7535 4.1348 -1.65477
-1.88033 4.46505 -1.64078
-2.02237 4.83224 -1.62312
-2.18986 5.26827 -1.60682
-2.3995 5.81351 -1.59583
-2.64559 6.45384 -1.5809
-2.94111 7.21912 -1.55983
-3.36182 8.19255 -1.53899
-3.84201 9.4243 -1.50791
-4.4919 11.0854 -1.46818
-5.34341 13.2693 -1.4008
-6.71438 16.7842 -1.32652
0.00108936 -0.356979 -0.0196178
0.00108936 -0.356979 -0.0196178
0.00108936 -0.356979 -0.0196178
0.00108936 -0.356979 -0.0196178
0.00108936 -0.356979 -0.0196178
-19.5929 49.9457 3.69777
-15.7473 40.119 3.98586
-15.7137 40.0784 5.00684
-15.6832 40.046 6.02455
-15.6584 40.0071 7.04627
-15.669 40.0807 8.10355
-0.20007 0.162886 -0.350727
-0.201972 0.168396 -0.33663
-0.221637 0.219626 -0.348882
-0.240203 0.268395 -0.35683
-0.27985 0.371639 -0.390074
0.0011242 -0.356636 -0.019599
-1.42896 3.35843 -1.68733
-1.51596 3.58706 -1.67475
-1.61671 3.8539 -1.66679
-1.72823 4.14695 -1.65543
-1.85316 4.47796 -1.6414
-1.98943 4.83919 -1.62148
-2.14979 5.26131 -1.60125
0.0011242 -0.356636 -0.019599
-2.60536 6.46346 -1.57968
-2.89746 7.23632 -1.55988
-3.3053 8.20235 -1.53708
-3.76674 9.40297 -1.50124
-4.41756 11.1019 -1.46686
-5.25787 13.2966 -1.40033
-6.55012 16.6621 -1.31433
0.0011242 -0.356636 -0.019599
-6.60552 16.8363 -0.466884
0.0011242 -0.356636 -0.019599
-17.003 43.9959 1.03246
-16.9816 43.9681 2.14315
-16.9429 43.9177 3.24442
-15.4898 40.1462 3.9793
-15.4657 40.1298 5.0017
-15.4263 40.0732 6.01484
-15.4017 40.0343 7.03501
-15.4101 40.1028 8.08961
-0.196528 0.162734 -0.34969
-0.198382 0.168284 -0.335632
-0.215239 0.212957 -0.344164
-0.239225 0.276776 -0.360412
-0.273781 0.368587 -0.387485
0.00112917 -0.35616 -0.0195734
-1.40751 3.36503 -1.68656
-1.49452 3.5996 -1.67622
-1.5898 3.8565 -1.66406
-1.7003 4.152 -1.65351
-1.82061 4.47644 -1.63723
-1.96084 4.85454 -1.62261
-2.11466 5.26672 -1.59924
-2.30771 5.78688 -1.582
-2.5628 6.47372 -1.57846
-2.84401 7.23166 -1.55545
-3.25392 8.2119 -1.5355
-3.70762 9.41746 -1.50018
-4.34294 11.099 -1.46342
-5.17735 13.315 -1.39929
0.00112917 -0.35616 -0.0195734
0.00112917 -0.35616 -0.0195734
0.00112917 -0.35616 -0.0195734
0.00112917 -0.35616 -0.0195734
-16.7239 44.0083 1.03018
-16.717 44.0413 2.14162
-16.729 44.1251 3.25218
-15.231 40.1893 3.9742
-15.2086 40.1553 4.99356
-15.1738 40.11 6.0068
-15.1439 40.0774 7.02632
-15.159 40.1435 8.07973
-0.194036 0.16592 -0.350694
-0.194698 0.16825 -0.334632
-0.214355 0.221269 -0.347909
-0.233565 0.273543 -0.357699
-0.26754 0.365519 -0.384897
0.00108685 -0.355723 -0.0195499
-1.38606 3.37549 -1.68735
-1.46844 3.60184 -1.67332
-1.56614 3.86782 -1.66476
-1.6728 4.16056 -1.65289
-1.7939 4.49297 -1.63904
-1.93077 4.86617 -1.62263
-2.0819 5.28136 -1.59978
-2.27424 5.80592 -1.58342
-2.52007 6.47965 -1.5764
-2.79956 7.2465 -1.55512
-3.19744 8.21659 -1.53294
-3.64716 9.42796 -1.49855
-4.26728 11.1045 -1.46091
-5.08914 13.3272 -1.39751
-6.38354 16.8177 -1.32065
0.00108685 -0.355723 -0.0195499
0.00108685 -0.355723 -0.0195499
0.00108685 -0.355723 -0.0195499
0.00108685 -0.355723 -0.0195499
0.00108685 -0.355723 -0.0195499
-18.5752 49.9107 3.66939
-14.9814 40.2338 3.96967
-14.9487 40.1931 4.9868
-14.9213 40.1451 5.99876
-14.8972 40.1273 7.01956
-14.8974 40.176 8.068
-0.192211 0.17066 -0.352721
-0.19041 0.166453 -0.332653
-0.210404 0.221296 -0.346948
-0.233018 0.283663 -0.36218
-0.265871 0.374298 -0.388309
0.00112169 -0.35538 -0.0195311
-1.36448 3.38381 -1.68735
-1.44749 3.6159 -1.67551
-1.54056 3.87366 -1.6634
-1.64873 4.17589 -1.65483
-1.76584 4.50359 -1.63906
-1.90196 4.88124 -1.62376
-2.05931 5.32098 -1.60743
-2.25063 5.85225 -1.59178
-2.47726 6.48519 -1.57435
-2.75041 7.24818 -1.55217
-3.14396 8.22422 -1.53103
-3.58933 9.44551 -1.49805
-4.19439 11.1106 -1.45864
-5.00815 13.351 -1.39703
-6.23735 16.7253 -1.31099
-6.55839 17.6258 -0.933019
0.00112169 -0.35538 -0.0195311
0.00112169 -0.35538 -0.0195311
0.00112169 -0.35538 -0.0195311
0.00112169 -0.35538 -0.0195311
-18.2446 49.9047 3.66076
-14.7291 40.2693 3.96441
-14.7007 40.2397 4.98166
-14.6711 40.1842 5.99155
-14.643 40.1553 7.00927
-14.6491 40.2209 8.0596
-0.186856 0.165693 -0.348615
-0.189236 0.172912 -0.335578
-0.208869 0.227886 -0.349754
-0.225703 0.275346 -0.356765
-0.260996 0.374453 -0.387438
0.00107937 -0.354942 -0.0195077
-0.629161 1.40215 -0.801655
-1.42526 3.62636 -1.67625
-1.51676 3.88462 -1.6641
-1.61871 4.17499 -1.65099
-1.73659 4.51055 -1.63788
-1.86854 4.88348 -1.62101
-2.02526 5.3295 -1.60644
-2.20764 5.84533 -1.58672
-2.4339 6.48878 -1.57187
-2.70329 7.25503 -1.55035
-3.09251 8.23702 -1.53009
-3.52547 9.44595 -1.49502
-4.12488 11.1257 -1.45754
-4.92446 13.367 -1.3958
-6.13138 16.7406 -1.30955
-6.5369 17.893 -0.944776
0.00107937 -0.354942 -0.0195077
0.00107937 -0.354942 -0.0195077
0.00107937 -0.354942 -0.0195077
0.00107937 -0.354942 -0.0195077
-17.6648 49.1957 3.60093
-14.4755 40.2995 3.95878
-14.4481 40.2718 4.97492
-14.4215 40.2237 5.98462
-14.3951 40.1986 7.00189
-14.4015 40.2661 8.05156
-0.184412 0.16884 -0.349617
-0.184424 0.169449 -0.332617
-0.20379 0.224488 -0.346915
-0.222058 0.27706 -0.356748
-0.255068 0.371286 -0.384847
0.00111421 -0.354599 -0.0194887
-0.614191 1.39232 -0.795459
-1.40046 3.62963 -1.67407
-1.49088 3.89216 -1.66342
-1.59453 4.1901 -1.65293
-1.70912 4.5226 -1.6385
-1.83741 4.89487 -1.62103
-1.99123 5.33785 -1.60544
-2.1702 5.85696 -1.58628
-2.39069 6.49608 -1.57023
-2.65672 7.26764 -1.54965
-3.0377 8.24018 -1.52753
-3.46453 9.45956 -1.49396
-4.04945 11.1235 -1.45433
-4.84792 13.403 -1.39664
-6.01594 16.7376 -1.30669
-6.53177 18.2154 -0.959298
0.00111421 -0.354599 -0.0194887
0.00111421 -0.354599 -0.0194887
0.00111421 -0.354599 -0.0194887
0.00111421 -0.354599 -0.0194887
-15.942 45.217 3.30287
-14.2229 40.3532 3.95535
-14.2028 40.3229 4.97071
-14.1635 40.2603 5.97713
-14.1367 40.2334 6.99289
-14.1169 40.204 8.02255
-0.178531 0.162204 -0.34449
-0.182457 0.1743 -0.334559
-0.204358 0.237739 -0.353485
-0.218892 0.280475 -0.35763
-0.253706 0.381748 -0.389119
0.00107188 -0.354162 -0.0194654
-0.600782 1.38764 -0.791587
-1.37676 3.63826 -1.67408
-1.46702 3.90285 -1.66412
-1.56867 4.20339 -1.65423
-1.67828 4.52767 -1.63672
-1.80835 4.90935 -1.62216
-1.95797 5.35179 -1.60597
-2.12553 5.84393 -1.57982
-2.34035 6.47866 -1.56316
-2.60768 7.26828 -1.54671
-2.98529 8.25472 -1.52693
-3.40342 9.46663 -1.49205
-3.97409 11.127 -1.45183
-4.76557 13.43 -1.39654
-5.90305 16.731 -1.30369
-8.70862 24.8807 -1.29415
-6.59896 18.7922 -0.512205
-14.0867 40.5413 -0.0676113
-14.0475 40.4781 0.934969
-14.0182 40.4437 1.94413
-13.9938 40.4001 2.94544
-13.9747 40.3952 3.9512
-13.9464 40.3636 4.96511
-13.916 40.3024 5.97104
-13.883 40.2567 6.98261
-13.8647 40.254 8.01562
-0.1783 0.171779 -0.349582
-0.179936 0.177351 -0.335525
-0.199278 0.234342 -0.350643
-0.215821 0.283814 -0.358513
-0.245969 0.373314 -0.383958
0.00107686 -0.353686 -0.0194398
-0.590119 1.38969 -0.790807
-1.35432 3.64827 -1.67482
