ply
format ascii 1.0
comment Created by Open3D
element vertex 2434
property double x
property double y
property double z
end_header
-3.591 -2.228 -1.762
-3.588 -2.234 -1.762
-3.584 -2.247 -1.764
-3.581 -2.261 -1.767
-3.576 -2.273 -1.767
-3.561 -2.28 -1.763
-3.547 -2.287 -1.76
-3.543 -2.3 -1.762
-3.537 -2.304 -1.76
-3.529 -2.315 -1.76
-3.53 -2.331 -1.764
-3.507 -2.332 -1.756
-3.497 -2.341 -1.754
-3.486 -2.35 -1.753
-3.49 -2.36 -1.757
-3.477 -2.367 -1.754
-3.462 -2.373 -1.749
-3.46 -2.388 -1.753
-3.444 -2.393 -1.748
-3.438 -2.405 -1.749
-3.448 -2.428 -1.758
-3.437 -2.428 -1.754
-3.426 -2.437 -1.753
-3.424 -2.452 -1.756
-3.409 -2.457 -1.752
-3.391 -2.46 -1.746
-3.374 -2.465 -1.741
-3.379 -2.484 -1.748
-3.373 -2.488 -1.747
-3.367 -2.5 -1.748
-3.353 -2.506 -1.745
-3.35 -2.52 -1.747
-3.337 -2.527 -1.745
-3.334 -2.541 -1.747
-3.323 -2.549 -1.745
-3.329 -2.562 -1.751
-3.312 -2.566 -1.746
-3.237 -2.525 -1.709
-3.286 -2.579 -1.741
-3.285 -2.595 -1.745
-3.274 -2.603 -1.743
-3.266 -2.613 -1.743
-3.28 -2.633 -1.754
-3.112 -2.767 -1.735
-3.105 -2.777 -1.736
-3.102 -2.792 -1.739
-3.09 -2.791 -1.735
-3.071 -2.791 -1.728
-3.069 -2.807 -1.732
-3.056 -2.813 -1.73
-3.05 -2.825 -1.732
-3.041 -2.834 -1.732
-3.037 -2.849 -1.735
-3.023 -2.845 -1.729
-3.014 -2.854 -1.729
-3.007 -2.865 -1.73
-3.003 -2.879 -1.733
-2.997 -2.891 -1.735
-2.98 -2.893 -1.73
-2.972 -2.904 -1.731
-2.965 -2.906 -1.729
-2.95 -2.91 -1.726
-2.937 -2.915 -1.723
-2.936 -2.932 -1.728
-2.911 -2.926 -1.719
-2.91 -2.943 -1.723
-2.899 -2.951 -1.723
-0.825 -1.116 -0.501
-0.816 -1.125 -0.501
-0.834 -1.168 -0.522
-2.322 -3.312 -1.682
-2.316 -3.326 -1.685
-2.305 -3.331 -1.684
-2.297 -3.343 -1.687
-2.284 -3.346 -1.684
-2.27 -3.348 -1.682
-2.268 -3.356 -1.684
-2.257 -3.364 -1.684
-2.255 -3.383 -1.691
-2.24 -3.384 -1.688
-2.222 -3.38 -1.682
-2.209 -3.383 -1.68
-2.204 -3.399 -1.684
-2.187 -3.384 -1.675
-2.181 -3.398 -1.679
-2.173 -3.41 -1.681
-2.159 -3.41 -1.678
-2.147 -3.416 -1.677
-2.138 -3.425 -1.679
-2.127 -3.432 -1.679
-2.12 -3.432 -1.677
-2.111 -3.442 -1.679
-2.091 -3.433 -1.671
-2.077 -3.435 -1.668
-2.071 -3.449 -1.672
-2.057 -3.451 -1.67
-2.049 -3.462 -1.672
-2.048 -3.472 -1.676
-2.032 -3.47 -1.671
-2.006 -3.451 -1.658
-1.682 -2.923 -1.383
-1.586 -2.778 -1.306
-1.577 -2.783 -1.306
-1.568 -2.778 -1.302
-1.559 -2.783 -1.302
-1.537 -2.764 -1.29
-1.527 -2.766 -1.288
-1.51 -2.756 -1.281
-1.495 -2.749 -1.275
-1.485 -2.751 -1.273
-1.472 -2.748 -1.269
-1.462 -2.74 -1.264
-1.458 -2.753 -1.268
-1.439 -2.738 -1.259
-1.429 -2.739 -1.257
-1.421 -2.745 -1.258
-1.404 -2.734 -1.25
-1.395 -2.728 -1.246
-1.392 -2.744 -1.251
-1.375 -2.73 -1.242
-1.365 -2.733 -1.242
-1.351 -2.726 -1.236
-1.341 -2.727 -1.234
-1.326 -2.718 -1.228
-1.326 -2.73 -1.233
-1.31 -2.719 -1.225
-1.296 -2.712 -1.22
-1.29 -2.721 -1.222
-1.283 -2.728 -1.224
-1.263 -2.707 -1.212
-1.257 -2.718 -1.215
-1.248 -2.71 -1.21
-1.237 -2.707 -1.207
-1.229 -2.713 -1.208
-1.217 -2.708 -1.203
-1.208 -2.712 -1.203
-1.206 -2.729 -1.21
-1.187 -2.71 -1.199
-1.183 -2.713 -1.199
-1.185 -2.74 -1.211
-1.159 -2.705 -1.192
-1.146 -2.697 -1.186
-1.134 -2.694 -1.183
-1.119 -2.683 -1.176
-1.109 -2.681 -1.173
-1.106 -2.686 -1.175
-1.092 -2.676 -1.169
-1.091 -2.698 -1.177
-1.075 -2.683 -1.169
-1.069 -2.693 -1.172
-1.089 -2.766 -1.205
-1.099 -2.815 -1.227
-1.236 -3.173 -1.398
-1.218 -3.155 -1.387
-1.19 -3.115 -1.366
-1.169 -3.089 -1.352
-1.158 -3.088 -1.35
-1.136 -3.059 -1.334
-1.117 -3.039 -1.323
-1.04 -2.849 -1.232
-0.984 -2.725 -1.172
-0.968 -2.708 -1.162
-0.95 -2.683 -1.149
-0.942 -2.69 -1.151
-0.928 -2.677 -1.143
-0.923 -2.687 -1.147
-0.918 -2.687 -1.146
-0.905 -2.678 -1.14
-0.893 -2.67 -1.135
-0.884 -2.671 -1.134
-0.875 -2.672 -1.134
-0.866 -2.671 -1.132
-0.862 -2.676 -1.134
-0.851 -2.668 -1.129
-0.843 -2.675 -1.13
-0.834 -2.674 -1.129
-0.825 -2.676 -1.129
-0.816 -2.677 -1.128
-0.81 -2.687 -1.131
-0.801 -2.672 -1.124
-0.794 -2.68 -1.126
-0.787 -2.686 -1.128
-0.779 -2.688 -1.128
-0.768 -2.682 -1.124
-0.763 -2.697 -1.13
-0.752 -2.692 -1.126
-0.746 -2.686 -1.123
-0.738 -2.69 -1.124
-0.727 -2.682 -1.119
-0.722 -2.699 -1.125
-0.711 -2.692 -1.121
-0.701 -2.689 -1.119
-0.695 -2.698 -1.122
-0.689 -2.692 -1.119
-0.681 -2.698 -1.121
-0.67 -2.689 -1.116
-0.661 -2.69 -1.115
-0.654 -2.699 -1.118
-0.646 -2.701 -1.118
-0.636 -2.696 -1.115
-0.631 -2.695 -1.114
-0.623 -2.701 -1.116
-0.613 -2.695 -1.112
-0.602 -2.685 -1.107
-0.593 -2.687 -1.107
-0.588 -2.705 -1.114
-0.576 -2.687 -1.105
-0.573 -2.697 -1.109
-0.564 -2.697 -1.108
-0.555 -2.695 -1.107
-0.548 -2.702 -1.109
-0.538 -2.695 -1.105
-0.527 -2.686 -1.1
-0.523 -2.69 -1.102
-0.514 -2.688 -1.1
-0.508 -2.7 -1.105
-0.499 -2.702 -1.105
-0.492 -2.707 -1.107
-0.482 -2.703 -1.104
-0.474 -2.705 -1.104
-0.473 -2.724 -1.112
-0.463 -2.721 -1.111
-0.455 -2.723 -1.111
-0.448 -2.735 -1.116
-0.438 -2.729 -1.112
-0.431 -2.736 -1.115
-0.423 -2.741 -1.117
-0.419 -2.745 -1.118
-0.412 -2.756 -1.122
-0.404 -2.762 -1.125
-0.397 -2.778 -1.131
-0.39 -2.79 -1.136
-0.382 -2.797 -1.138
-0.377 -2.823 -1.15
-0.374 -2.829 -1.152
-0.37 -2.87 -1.17
-0.365 -2.9 -1.183
-0.369 -3.001 -1.228
-0.353 -2.953 -1.206
-0.318 -2.748 -1.113
-0.301 -2.682 -1.083
-0.296 -2.675 -1.08
-0.287 -2.67 -1.078
-0.28 -2.686 -1.084
-0.271 -2.681 -1.082
-0.264 -2.687 -1.084
-0.255 -2.688 -1.084
-0.247 -2.691 -1.085
-0.242 -2.686 -1.082
-0.233 -2.681 -1.08
-0.227 -2.705 -1.091
-0.217 -2.686 -1.082
-0.208 -2.681 -1.079
-0.201 -2.706 -1.09
-0.192 -2.692 -1.083
-0.188 -2.696 -1.085
-0.18 -2.713 -1.092
-0.17 -2.691 -1.082
-0.162 -2.694 -1.083
-0.154 -2.703 -1.087
-0.145 -2.696 -1.084
-0.137 -2.702 -1.086
-0.133 -2.699 -1.085
-0.124 -2.69 -1.081
-0.115 -2.69 -1.081
-0.107 -2.707 -1.088
-0.098 -2.693 -1.082
-0.089 -2.682 -1.077
-0.086 -2.697 -1.083
-0.077 -2.703 -1.086
-0.069 -2.692 -1.081
-0.06 -2.692 -1.081
-0.052 -2.702 -1.085
-0.043 -2.689 -1.079
-0.035 -2.693 -1.081
-0.031 -2.698 -1.083
-0.022 -2.704 -1.086
-0.014 -2.706 -1.086
-0.005 -2.687 -1.078
0.003 -2.693 -1.081
0.012 -2.706 -1.086
0.02 -2.697 -1.082
0.024 -2.689 -1.079
0.033 -2.716 -1.091
0.041 -2.7 -1.084
0.05 -2.731 -1.098
0.059 -2.775 -1.117
0.067 -2.72 -1.093
0.07 -2.648 -1.061
0.222 -2.669 -1.074
0.233 -2.701 -1.089
0.24 -2.734 -1.104
0.259 -2.763 -1.117
1.232 -2.811 -1.248
1.235 -2.794 -1.242
1.238 -2.775 -1.234
1.249 -2.79 -1.242
1.254 -2.777 -1.238
1.261 -2.768 -1.236
1.276 -2.779 -1.243
1.28 -2.764 -1.238
1.294 -2.771 -1.243
1.307 -2.777 -1.248
1.312 -2.777 -1.249
1.319 -2.769 -1.247
1.327 -2.764 -1.247
1.342 -2.773 -1.253
1.354 -2.775 -1.256
1.357 -2.759 -1.251
1.368 -2.76 -1.253
1.381 -2.774 -1.261
1.398 -2.788 -1.27
1.406 -2.782 -1.269
1.409 -2.766 -1.264
1.426 -2.778 -1.272
1.436 -2.775 -1.273
1.449 -2.78 -1.277
1.458 -2.786 -1.281
1.473 -2.794 -1.288
1.478 -2.782 -1.284
1.495 -2.793 -1.292
1.499 -2.779 -1.287
1.513 -2.785 -1.293
1.527 -2.79 -1.298
1.529 -2.783 -1.295
1.545 -2.791 -1.302
1.556 -2.791 -1.304
1.572 -2.799 -1.311
1.584 -2.8 -1.314
1.587 -2.784 -1.308
1.607 -2.81 -1.323
1.613 -2.799 -1.32
1.627 -2.803 -1.325
1.637 -2.801 -1.326
1.654 -2.809 -1.333
1.667 -2.812 -1.337
1.676 -2.806 -1.337
1.683 -2.808 -1.339
1.696 -2.811 -1.343
1.71 -2.813 -1.347
1.723 -2.816 -1.351
1.742 -2.826 -1.359
1.755 -2.828 -1.364
1.761 -2.818 -1.361
1.773 -2.826 -1.367
1.781 -2.821 -1.367
1.798 -2.828 -1.373
1.818 -2.839 -1.382
1.829 -2.838 -1.385
1.837 -2.831 -1.384
1.849 -2.838 -1.39
1.863 -2.84 -1.394
1.882 -2.851 -1.403
1.888 -2.841 -1.4
1.901 -2.841 -1.403
1.912 -2.838 -1.405
1.924 -2.837 -1.407
1.942 -2.844 -1.415
1.951 -2.847 -1.418
1.971 -2.858 -1.427
1.982 -2.854 -1.429
1.996 -2.856 -1.433
2.03 -2.885 -1.452
2.026 -2.86 -1.442
2.049 -2.883 -1.456
2.251 -3.15 -1.605
2.312 -3.216 -1.645
2.179 -3.008 -1.535
2.152 -2.951 -1.507
2.145 -2.922 -1.495
2.146 -2.903 -1.489
2.152 -2.901 -1.489
2.142 -2.87 -1.476
2.147 -2.857 -1.472
2.154 -2.847 -1.471
2.154 -2.829 -1.464
2.163 -2.822 -1.464
2.175 -2.82 -1.467
2.175 -2.81 -1.463
2.18 -2.799 -1.461
2.198 -2.804 -1.468
2.211 -2.803 -1.471
2.226 -2.803 -1.475
2.239 -2.802 -1.478
2.255 -2.803 -1.483
2.269 -2.813 -1.49
2.293 -2.824 -1.501
2.309 -2.825 -1.506
2.333 -2.837 -1.516
2.361 -2.853 -1.53
2.367 -2.842 -1.528
2.398 -2.861 -1.543
2.398 -2.851 -1.54
2.423 -2.864 -1.551
2.445 -2.871 -1.56
2.454 -2.864 -1.56
2.42 -2.806 -1.531
2.485 -2.863 -1.569
2.498 -2.869 -1.575
2.515 -2.871 -1.58
2.522 -2.86 -1.579
2.538 -2.861 -1.584
2.555 -2.862 -1.589
2.569 -2.86 -1.593
2.582 -2.856 -1.595
2.595 -2.861 -1.601
2.617 -2.868 -1.61
2.641 -2.876 -1.619
2.689 -2.911 -1.645
2.739 -2.947 -1.672
2.761 -2.952 -1.68
2.773 -2.946 -1.682
2.78 -2.944 -1.684
2.798 -2.945 -1.689
2.794 -2.923 -1.681
2.809 -2.919 -1.684
2.818 -2.91 -1.684
2.828 -2.903 -1.685
2.828 -2.885 -1.68
2.843 -2.891 -1.686
2.846 -2.875 -1.682
2.848 -2.86 -1.678
2.866 -2.86 -1.684
2.88 -2.856 -1.687
2.895 -2.852 -1.69
2.896 -2.835 -1.685
2.901 -2.832 -1.686
2.908 -2.82 -1.684
2.924 -2.819 -1.689
2.928 -2.804 -1.686
2.943 -2.802 -1.69
2.952 -2.792 -1.69
2.955 -2.786 -1.689
2.975 -2.787 -1.696
2.975 -2.77 -1.691
2.979 -2.756 -1.688
2.989 -2.748 -1.689
3.001 -2.742 -1.691
3.005 -2.728 -1.688
3.013 -2.727 -1.69
3.023 -2.719 -1.691
3.03 -2.708 -1.69
3.041 -2.701 -1.692
3.056 -2.697 -1.696
3.055 -2.679 -1.69
3.068 -2.673 -1.693
3.08 -2.676 -1.697
3.09 -2.667 -1.698
3.089 -2.649 -1.693
3.114 -2.654 -1.702
3.101 -2.626 -1.69
3.111 -2.617 -1.691
3.119 -2.608 -1.691
3.124 -2.604 -1.692
3.12 -2.583 -1.684
3.389 -2.321 -1.71
3.404 -2.324 -1.716
3.395 -2.302 -1.707
3.413 -2.299 -1.713
3.408 -2.28 -1.706
3.414 -2.268 -1.706
3.431 -2.264 -1.711
3.429 -2.247 -1.706
3.435 -2.236 -1.706
3.443 -2.233 -1.708
3.439 -2.215 -1.702
3.448 -2.206 -1.703
3.674 -1.933 -1.729
3.681 -1.922 -1.73
3.678 -1.913 -1.727
3.689 -1.904 -1.729
3.691 -1.891 -1.728
3.693 -1.877 -1.725
3.698 -1.865 -1.725
3.706 -1.854 -1.726
3.71 -1.842 -1.725
3.716 -1.838 -1.727
3.714 -1.822 -1.723
3.726 -1.814 -1.726
3.676 -1.774 -1.698
3.746 -1.794 -1.73
3.743 -1.778 -1.726
3.747 -1.766 -1.725
3.753 -1.762 -1.727
3.744 -1.743 -1.719
3.762 -1.737 -1.726
3.781 -1.731 -1.732
3.773 -1.713 -1.726
3.798 -1.711 -1.736
3.785 -1.69 -1.727
3.798 -1.689 -1.732
3.812 -1.681 -1.736
3.809 -1.665 -1.732
3.822 -1.657 -1.736
3.824 -1.643 -1.734
3.824 -1.629 -1.732
3.831 -1.618 -1.732
3.827 -1.609 -1.729
3.837 -1.599 -1.732
3.84 -1.586 -1.731
3.855 -1.578 -1.736
3.845 -1.56 -1.728
3.848 -1.547 -1.728
3.849 -1.541 -1.727
3.871 -1.535 -1.735
3.864 -1.518 -1.729
3.873 -1.508 -1.732
3.888 -1.5 -1.736
3.89 -1.487 -1.735
3.908 -1.48 -1.741
3.917 -1.476 -1.745
3.917 -1.462 -1.742
3.931 -1.453 -1.747
3.933 -1.44 -1.745
3.942 -1.429 -1.748
3.945 -1.416 -1.747
3.958 -1.407 -1.751
3.955 -1.399 -1.749
3.963 -1.388 -1.75
3.967 -1.375 -1.75
3.97 -1.362 -1.749
3.957 -1.344 -1.741
3.982 -1.338 -1.751
3.988 -1.326 -1.752
3.791 1.41 -1.728
3.744 1.406 -1.707
3.741 1.418 -1.708
3.749 1.434 -1.713
3.726 1.439 -1.704
3.741 1.459 -1.714
3.742 1.472 -1.717
3.718 1.469 -1.706
3.723 1.485 -1.711
3.739 1.505 -1.721
3.699 1.502 -1.704
3.704 1.518 -1.708
3.704 1.532 -1.711
3.685 1.531 -1.703
3.683 1.544 -1.704
3.687 1.559 -1.708
3.667 1.564 -1.701
3.679 1.583 -1.709
3.68 1.597 -1.713
3.689 1.615 -1.719
3.683 1.619 -1.718
3.658 1.621 -1.708
3.648 1.631 -1.705
3.651 1.646 -1.709
3.647 1.658 -1.71
3.636 1.667 -1.707
3.634 1.679 -1.708
3.651 1.695 -1.718
3.644 1.705 -1.718
3.642 1.718 -1.719
3.603 1.714 -1.703
3.609 1.731 -1.708
3.607 1.744 -1.71
3.594 1.751 -1.706
3.584 1.753 -1.703
3.582 1.766 -1.704
3.601 1.79 -1.717
3.582 1.794 -1.71
3.599 1.817 -1.722
3.569 1.816 -1.709
3.549 1.82 -1.702
3.551 1.828 -1.704
3.55 1.842 -1.707
3.543 1.852 -1.706
3.53 1.859 -1.703
3.52 1.868 -1.7
3.519 1.882 -1.703
3.421 2.199 -1.738
3.376 2.185 -1.717
3.355 2.186 -1.709
3.318 2.177 -1.693
3.316 2.19 -1.695
3.319 2.208 -1.701
3.313 2.218 -1.701
3.312 2.225 -1.703
3.302 2.234 -1.701
3.274 2.23 -1.689
3.258 2.234 -1.684
3.258 2.249 -1.689
3.245 2.255 -1.685
3.25 2.274 -1.692
3.045 2.598 -1.708
3.01 2.584 -1.692
2.989 2.574 -1.682
3.006 2.605 -1.697
2.989 2.607 -1.692
2.976 2.612 -1.689
2.974 2.627 -1.693
2.951 2.623 -1.684
2.947 2.636 -1.686
2.945 2.643 -1.688
2.924 2.64 -1.679
2.934 2.666 -1.691
2.899 2.651 -1.674
2.883 2.653 -1.67
2.874 2.662 -1.67
2.878 2.682 -1.677
2.862 2.675 -1.67
2.855 2.685 -1.67
2.861 2.708 -1.679
2.835 2.701 -1.669
2.831 2.713 -1.671
2.832 2.732 -1.678
2.813 2.731 -1.671
2.808 2.734 -1.67
2.81 2.753 -1.677
2.78 2.742 -1.664
2.786 2.764 -1.673
2.799 2.795 -1.687
2.786 2.8 -1.684
2.763 2.785 -1.672
2.76 2.8 -1.676
2.74 2.797 -1.669
2.73 2.804 -1.668
2.722 2.814 -1.669
2.706 2.815 -1.664
2.696 2.822 -1.663
2.705 2.841 -1.672
2.704 2.857 -1.677
2.692 2.863 -1.675
2.697 2.886 -1.684
2.668 2.873 -1.671
2.652 2.874 -1.666
2.66 2.901 -1.678
2.641 2.889 -1.668
2.624 2.889 -1.663
2.619 2.901 -1.665
2.611 2.911 -1.666
2.592 2.908 -1.66
2.596 2.931 -1.669
2.579 2.93 -1.663
2.592 2.954 -1.675
2.592 2.974 -1.682
2.545 2.937 -1.655
2.543 2.954 -1.66
2.535 2.963 -1.661
2.521 2.965 -1.658
2.517 2.98 -1.662
2.508 2.979 -1.659
2.508 2.998 -1.665
2.505 3.014 -1.67
2.5 3.028 -1.674
2.482 3.024 -1.667
2.48 3.042 -1.673
2.47 3.05 -1.673
2.45 3.034 -1.661
2.453 3.057 -1.67
2.44 3.06 -1.668
2.445 3.087 -1.679
2.425 3.081 -1.671
2.412 3.085 -1.669
2.39 3.076 -1.66
2.378 3.071 -1.655
2.375 3.088 -1.66
2.362 3.091 -1.657
2.378 3.132 -1.676
2.367 3.138 -1.675
2.331 3.11 -1.655
2.326 3.123 -1.659
2.321 3.127 -1.659
2.313 3.137 -1.66
2.3 3.14 -1.658
2.287 3.142 -1.655
2.278 3.151 -1.656
2.274 3.167 -1.661
2.279 3.184 -1.669
2.267 3.188 -1.667
2.261 3.201 -1.67
2.239 3.192 -1.661
2.224 3.191 -1.657
2.216 3.201 -1.659
2.204 3.205 -1.657
2.199 3.209 -1.657
2.19 3.217 -1.658
2.178 3.221 -1.656
2.166 3.225 -1.655
2.153 3.227 -1.652
2.144 3.237 -1.654
2.139 3.251 -1.658
2.148 3.276 -1.67
2.143 3.29 -1.674
2.128 3.291 -1.67
2.119 3.299 -1.671
2.103 3.297 -1.666
2.085 3.291 -1.66
2.076 3.3 -1.661
2.068 3.299 -1.659
2.057 3.304 -1.658
2.048 3.314 -1.66
2.036 3.317 -1.658
2.027 3.325 -1.659
2.014 3.328 -1.657
2.006 3.337 -1.659
2 3.341 -1.659
1.989 3.345 -1.658
1.976 3.347 -1.655
1.964 3.351 -1.655
1.961 3.37 -1.661
1.955 3.384 -1.665
1.943 3.389 -1.665
1.932 3.381 -1.659
1.921 3.387 -1.659
1.907 3.386 -1.655
1.897 3.394 -1.656
1.889 3.405 -1.659
1.874 3.403 -1.655
1.862 3.407 -1.654
1.861 3.416 -1.657
1.857 3.435 -1.664
1.848 3.446 -1.666
1.827 3.43 -1.655
1.811 3.426 -1.65
1.808 3.448 -1.659
1.798 3.456 -1.66
1.796 3.465 -1.663
1.785 3.471 -1.663
1.77 3.468 -1.659
1.763 3.48 -1.662
1.753 3.487 -1.663
1.739 3.488 -1.66
1.717 3.47 -1.649
1.708 3.466 -1.645
1.695 3.467 -1.643
1.685 3.474 -1.644
1.667 3.464 -1.636
1.656 3.47 -1.636
1.641 3.466 -1.632
1.634 3.478 -1.635
1.628 3.481 -1.635
1.61 3.471 -1.628
1.594 3.463 -1.621
1.589 3.483 -1.629
1.567 3.463 -1.616
1.556 3.468 -1.616
1.541 3.463 -1.611
1.535 3.463 -1.611
1.522 3.463 -1.608
1.507 3.458 -1.603
1.496 3.462 -1.603
1.481 3.457 -1.598
1.47 3.462 -1.598
1.456 3.458 -1.594
1.454 3.47 -1.599
1.437 3.46 -1.592
1.424 3.459 -1.589
1.409 3.453 -1.584
1.403 3.47 -1.59
1.388 3.462 -1.584
1.377 3.467 -1.584
1.371 3.469 -1.584
1.355 3.459 -1.577
1.34 3.453 -1.572
1.332 3.464 -1.576
1.319 3.462 -1.572
1.301 3.449 -1.564
1.294 3.463 -1.569
1.283 3.45 -1.562
1.273 3.456 -1.562
1.265 3.468 -1.567
1.248 3.453 -1.558
1.233 3.447 -1.553
1.229 3.47 -1.562
1.21 3.449 -1.55
1.204 3.449 -1.549
1.198 3.469 -1.557
1.179 3.448 -1.545
1.168 3.45 -1.544
1.158 3.456 -1.545
1.143 3.449 -1.54
1.128 3.439 -1.533
1.13 3.463 -1.544
1.112 3.446 -1.534
1.1 3.444 -1.532
1.094 3.465 -1.54
1.074 3.437 -1.525
1.064 3.442 -1.526
1.057 3.457 -1.532
1.044 3.435 -1.52
1.035 3.445 -1.523
1.026 3.455 -1.527
1.01 3.441 -1.519
1.001 3.448 -1.52
0.99 3.452 -1.521
0.973 3.431 -1.509
0.967 3.432 -1.509
0.959 3.444 -1.514
0.941 3.423 -1.502
0.929 3.419 -1.499
0.924 3.443 -1.509
0.91 3.435 -1.504
0.903 3.431 -1.501
0.893 3.436 -1.502
0.878 3.421 -1.494
0.867 3.422 -1.493
0.867 3.47 -1.514
0.841 3.409 -1.485
0.832 3.419 -1.488
0.83 3.435 -1.494
0.816 3.425 -1.489
0.805 3.424 -1.487
0.797 3.44 -1.494
0.78 3.415 -1.48
0.77 3.419 -1.481
0.762 3.435 -1.488
0.748 3.424 -1.481
0.741 3.418 -1.478
0.733 3.432 -1.484
0.718 3.411 -1.473
0.706 3.41 -1.471
0.696 3.418 -1.474
0.685 3.416 -1.472
0.674 3.418 -1.472
0.67 3.423 -1.474
0.656 3.407 -1.465
0.645 3.411 -1.466
0.633 3.408 -1.464
0.622 3.404 -1.461
0.61 3.401 -1.459
0.608 3.422 -1.468
0.594 3.402 -1.458
0.582 3.398 -1.455
0.574 3.415 -1.462
0.561 3.406 -1.457
0.55 3.405 -1.456
0.54 3.411 -1.458
0.532 3.394 -1.45
0.523 3.403 -1.453
0.513 3.413 -1.457
0.501 3.4 -1.45
0.489 3.395 -1.447
0.478 3.398 -1.448
0.467 3.39 -1.444
0.456 3.394 -1.445
0.452 3.407 -1.45
0.44 3.398 -1.446
0.43 3.401 -1.446
0.419 3.4 -1.446
0.408 3.402 -1.446
0.397 3.401 -1.445
0.386 3.393 -1.441
0.38 3.394 -1.441
0.369 3.391 -1.439
0.36 3.4 -1.442
0.347 3.386 -1.436
0.337 3.387 -1.436
0.327 3.396 -1.439
0.321 3.394 -1.438
0.311 3.395 -1.438
0.3 3.393 -1.436
0.289 3.388 -1.434
0.278 3.389 -1.434
0.268 3.397 -1.437
0.256 3.382 -1.43
0.251 3.38 -1.429
0.24 3.379 -1.428
0.229 3.382 -1.429
0.218 3.373 -1.425
0.207 3.371 -1.423
0.197 3.369 -1.422
0.186 3.375 -1.425
0.181 3.383 -1.428
0.17 3.371 -1.422
0.16 3.384 -1.428
0.149 3.377 -1.425
0.139 3.376 -1.424
0.128 3.371 -1.421
0.118 3.408 -1.438
0.112 3.382 -1.426
0.102 3.41 -1.439
0.091 3.401 -1.435
0.08 3.374 -1.422
0.069 3.363 -1.417
0.059 3.38 -1.425
0.048 3.384 -1.426
0.043 3.411 -1.439
0.033 3.402 -1.435
0.022 3.391 -1.43
0.011 3.368 -1.419
0.001 3.386 -1.427
-0.01 3.393 -1.431
-0.021 3.406 -1.436
-0.027 3.426 -1.446
-0.038 3.46 -1.461
-0.054 3.693 -1.567
-0.067 3.773 -1.604
-0.079 3.758 -1.597
-0.091 3.762 -1.599
-0.103 3.763 -1.6
-0.109 3.763 -1.6
-0.121 3.77 -1.603
-0.133 3.769 -1.603
-0.144 3.764 -1.601
-0.155 3.75 -1.595
-0.168 3.764 -1.601
-0.18 3.764 -1.601
-0.186 3.767 -1.603
-0.197 3.763 -1.601
-0.209 3.762 -1.601
-0.221 3.758 -1.6
-0.233 3.763 -1.602
-0.245 3.758 -1.601
-0.257 3.761 -1.602
-0.262 3.748 -1.597
-0.274 3.753 -1.599
-0.283 3.717 -1.583
-0.297 3.744 -1.596
-0.309 3.748 -1.598
-0.321 3.751 -1.6
-0.333 3.746 -1.598
-0.339 3.753 -1.601
-0.351 3.752 -1.601
-0.362 3.745 -1.599
-0.374 3.748 -1.601
-0.386 3.745 -1.6
-0.398 3.749 -1.602
-0.409 3.739 -1.598
-0.416 3.749 -1.603
-0.427 3.737 -1.598
-0.441 3.757 -1.608
-0.451 3.743 -1.602
-0.463 3.741 -1.602
-0.475 3.742 -1.603
-0.487 3.74 -1.603
-0.494 3.752 -1.609
-0.504 3.738 -1.603
-0.516 3.738 -1.604
-0.529 3.74 -1.606
-0.54 3.737 -1.605
-0.552 3.733 -1.604
-0.564 3.735 -1.606
-0.569 3.73 -1.604
-0.582 3.734 -1.606
-0.595 3.739 -1.61
-0.605 3.732 -1.607
-0.616 3.721 -1.603
-0.631 3.739 -1.612
-0.64 3.721 -1.605
-0.647 3.731 -1.61
-0.661 3.739 -1.615
-0.668 3.712 -1.603
-0.681 3.715 -1.606
-0.698 3.744 -1.62
-0.706 3.722 -1.611
-0.718 3.72 -1.611
-0.727 3.733 -1.617
-0.737 3.721 -1.613
-0.747 3.714 -1.611
-0.765 3.738 -1.623
-0.771 3.713 -1.612
-0.786 3.723 -1.618
-0.796 3.715 -1.616
-0.802 3.713 -1.616
-0.813 3.709 -1.615
-0.828 3.719 -1.621
-0.839 3.716 -1.621
-0.849 3.703 -1.616
-0.866 3.725 -1.627
-0.873 3.703 -1.618
-0.879 3.703 -1.619
-0.896 3.72 -1.628
-0.905 3.707 -1.623
-0.915 3.698 -1.621
-0.934 3.722 -1.633
-0.937 3.689 -1.619
-0.951 3.695 -1.623
-0.961 3.709 -1.631
-0.973 3.704 -1.63
-0.984 3.7 -1.629
-1.003 3.723 -1.641
-1.004 3.681 -1.623
-1.02 3.695 -1.631
-1.034 3.699 -1.635
-1.041 3.703 -1.637
-1.05 3.691 -1.633
-1.063 3.693 -1.635
-1.073 3.684 -1.633
-1.086 3.684 -1.635
-1.103 3.7 -1.644
-1.107 3.67 -1.631
-1.118 3.686 -1.64
-1.136 3.702 -1.649
-1.141 3.677 -1.639
-1.158 3.693 -1.648
-1.17 3.689 -1.648
-1.182 3.687 -1.649
-1.19 3.671 -1.643
-1.205 3.697 -1.656
-1.206 3.664 -1.642
-1.242 3.731 -1.676
-1.262 3.753 -1.689
-1.254 3.692 -1.661
-1.268 3.695 -1.665
-1.278 3.686 -1.662
-1.287 3.692 -1.666
-1.297 3.685 -1.665
-1.313 3.691 -1.67
-1.323 3.683 -1.668
-1.335 3.679 -1.668
-1.346 3.675 -1.668
-1.362 3.683 -1.674
-1.367 3.679 -1.673
-1.387 3.695 -1.683
-1.389 3.667 -1.671
-1.411 3.689 -1.684
-1.421 3.682 -1.683
-1.44 3.694 -1.691
-1.45 3.686 -1.689
-1.467 3.713 -1.704
-1.481 3.713 -1.706
-1.493 3.71 -1.707
-1.506 3.707 -1.708
-1.518 3.704 -1.708
-1.525 3.687 -1.703
-1.543 3.698 -1.71
-1.548 3.694 -1.709
-1.56 3.69 -1.71
-1.572 3.687 -1.711
-1.582 3.677 -1.708
-1.591 3.667 -1.706
-1.611 3.68 -1.715
-1.613 3.655 -1.705
-1.621 3.658 -1.708
-1.637 3.663 -1.713
-1.643 3.644 -1.706
-1.657 3.646 -1.709
-1.664 3.631 -1.704
-1.679 3.634 -1.708
-1.685 3.615 -1.702
-1.701 3.62 -1.707
-1.706 3.617 -1.707
-1.718 3.612 -1.707
-1.733 3.614 -1.711
-1.741 3.602 -1.708
-1.752 3.595 -1.707
-1.768 3.599 -1.712
-1.773 3.581 -1.705
-1.777 3.575 -1.704
-1.796 3.585 -1.712
-1.807 3.578 -1.711
-1.814 3.564 -1.707
-1.835 3.578 -1.717
-1.839 3.559 -1.71
-1.849 3.55 -1.708
-1.861 3.56 -1.715
-1.866 3.543 -1.709
-1.882 3.545 -1.713
-1.895 3.543 -1.715
-1.903 3.532 -1.713
-1.915 3.527 -1.713
-1.928 3.537 -1.72
-1.932 3.518 -1.713
-1.942 3.511 -1.713
-1.962 3.52 -1.721
-1.961 3.494 -1.71
-1.972 3.488 -1.71
-1.993 3.499 -1.719
-1.999 3.483 -1.714
-2.002 3.477 -1.713
-2.023 3.488 -1.722
-2.024 3.464 -1.713
-2.036 3.459 -1.713
-2.055 3.467 -1.721
-2.06 3.451 -1.716
-2.071 3.445 -1.716
-2.084 3.454 -1.723
-2.084 3.429 -1.713
-2.096 3.425 -1.714
-2.124 3.446 -1.729
-2.12 3.415 -1.716
-2.132 3.411 -1.718
-2.153 3.42 -1.726
-2.148 3.401 -1.718
-2.165 3.404 -1.723
-2.177 3.398 -1.723
-2.184 3.387 -1.721
-2.196 3.382 -1.722
-2.215 3.387 -1.728
-2.208 3.365 -1.718
-2.225 3.367 -1.723
-2.241 3.369 -1.728
-2.249 3.358 -1.726
-2.254 3.343 -1.722
-2.275 3.351 -1.73
-2.28 3.336 -1.726
-2.299 3.341 -1.733
-2.303 3.336 -1.732
-2.315 3.33 -1.733
-2.32 3.316 -1.728
-2.335 3.314 -1.732
-2.335 3.294 -1.724
-2.352 3.295 -1.729
-2.364 3.289 -1.73
-2.362 3.277 -1.725
-2.375 3.272 -1.727
-2.393 3.275 -1.733
-2.401 3.264 -1.731
-2.412 3.258 -1.732
-2.435 3.268 -1.742
-2.432 3.243 -1.732
-2.446 3.251 -1.738
-2.44 3.221 -1.726
-2.444 3.207 -1.722
-2.455 3.199 -1.722
-2.471 3.2 -1.727
-2.462 3.168 -1.713
-0.897 1.148 -0.548
-2.483 3.174 -1.721
-1.143 1.46 -0.729
-2.503 3.189 -1.732
-0.887 1.128 -0.538
-0.893 1.128 -0.54
-0.934 1.174 -0.568
-0.959 1.197 -0.583
-1.018 1.261 -0.623
-1.02 1.255 -0.621
-1.002 1.225 -0.605
-1.009 1.226 -0.608
-0.995 1.202 -0.595
-1.082 1.3 -0.655
-0.955 1.059 -0.534
-0.946 0.998 -0.511
-1.082 1.13 -0.597
-3.031 2.743 -1.747
-3.084 2.773 -1.774
-3.076 2.748 -1.764
-3.058 2.716 -1.748
-3.053 2.703 -1.743
-3.079 2.709 -1.753
-3.066 2.68 -1.74
-3.078 2.674 -1.743
-3.101 2.676 -1.751
-3.123 2.678 -1.759
-3.13 2.667 -1.758
-3.165 2.688 -1.777
-3.446 2.375 -1.791
-3.439 2.347 -1.781
-3.434 2.328 -1.775
-3.432 2.311 -1.77
-3.427 2.292 -1.763
-3.425 2.275 -1.758
-3.436 2.266 -1.76
-3.456 2.272 -1.769
-3.454 2.255 -1.764
-3.462 2.245 -1.765
-3.465 2.231 -1.762
-3.486 2.229 -1.77
-3.51 2.229 -1.779
-3.495 2.204 -1.767
-3.485 2.19 -1.76
-3.501 2.185 -1.765
-3.515 2.179 -1.769
-3.505 2.157 -1.76
-3.513 2.147 -1.761
-3.531 2.143 -1.767
-3.552 2.14 -1.774
-3.543 2.127 -1.767
-3.556 2.12 -1.771
-3.537 2.094 -1.757
-3.548 2.085 -1.76
-3.569 2.082 -1.767
-3.582 2.075 -1.771
-3.585 2.062 -1.769
-3.596 2.061 -1.773
-3.606 2.051 -1.775
-3.612 2.04 -1.775
-3.622 2.03 -1.777
-3.62 2.014 -1.772
-3.619 1.999 -1.768
-3.643 1.997 -1.777
-3.638 1.987 -1.773
-3.654 1.98 -1.778
-3.647 1.962 -1.772
-7.676 2.339 -3.542
-7.666 2.31 -3.534
-7.691 2.291 -3.542
-7.66 2.255 -3.524
-7.663 2.23 -3.522
-3.596 -2.249 -1.817
-3.558 -2.241 -1.801
-3.531 -2.232 -1.788
-3.512 -2.235 -1.781
-3.517 -2.254 -1.788
-3.5 -2.258 -1.782
-3.489 -2.267 -1.781
-3.475 -2.273 -1.777
-3.471 -2.286 -1.778
-3.458 -2.285 -1.773
-3.46 -2.302 -1.778
-3.456 -2.315 -1.78
-3.436 -2.318 -1.773
-3.43 -2.33 -1.774
-3.426 -2.342 -1.776
-3.414 -2.35 -1.773
-3.4 -2.348 -1.767
-3.388 -2.356 -1.765
-3.382 -2.367 -1.766
-3.376 -2.379 -1.767
-3.391 -2.406 -1.779
-3.366 -2.403 -1.769
-3.376 -2.427 -1.779
-3.354 -2.419 -1.769
-3.348 -2.431 -1.77
-3.323 -2.428 -1.76
-3.32 -2.442 -1.762
-3.319 -2.458 -1.767
-3.317 -2.473 -1.77
-3.314 -2.486 -1.772
-3.303 -2.486 -1.768
-3.289 -2.492 -1.765
-3.281 -2.502 -1.765
-3.285 -2.522 -1.772
-3.274 -2.53 -1.77
-3.253 -2.53 -1.762
-3.244 -2.53 -1.759
-3.237 -2.542 -1.76
-3.233 -2.555 -1.762
-3.223 -2.563 -1.761
-3.217 -2.576 -1.762
-3.212 -2.588 -1.764
-3.202 -2.597 -1.763
-3.2 -2.603 -1.764
-3.183 -2.606 -1.759
-3.179 -2.62 -1.762
-3.158 -2.619 -1.754
-3.152 -2.63 -1.755
-3.138 -2.635 -1.752
-3.153 -2.665 -1.766
-3.146 -2.668 -1.764
-3.14 -2.68 -1.766
-3.117 -2.677 -1.757
-3.123 -2.7 -1.766
-3.103 -2.699 -1.758
-3.098 -2.712 -1.761
-3.109 -2.739 -1.772
-2.873 -2.944 -1.759
-2.853 -2.941 -1.752
-2.831 -2.937 -1.743
-2.826 -2.942 -1.743
-2.811 -2.944 -1.739
-2.809 -2.961 -1.744
-2.792 -2.961 -1.739
-2.785 -2.973 -1.741
-2.756 -2.96 -1.728
-2.757 -2.97 -1.731
-2.752 -2.984 -1.734
-2.742 -2.991 -1.733
-2.735 -3.002 -1.735
-2.732 -3.019 -1.74
-2.713 -3.017 -1.733
-2.705 -3.027 -1.734
-2.711 -3.043 -1.742
-0.921 -1.203 -0.574
-1.027 -1.489 -0.708
-0.929 -1.352 -0.632
-0.878 -1.284 -0.593
-0.879 -1.29 -0.595
-0.825 -1.216 -0.554
-0.793 -1.175 -0.53
-0.782 -1.166 -0.524
-0.809 -1.216 -0.55
-0.843 -1.279 -0.582
-0.892 -1.366 -0.628
-2.145 -3.412 -1.721
-2.129 -3.409 -1.716
-2.101 -3.388 -1.701
-2.087 -3.388 -1.698
-2.076 -3.395 -1.698
-2.084 -3.42 -1.709
-2.069 -3.42 -1.706
-2.047 -3.408 -1.696
-2.03 -3.403 -1.69
-2.025 -3.419 -1.695
-2.009 -3.416 -1.69
-2 -3.426 -1.692
-2.003 -3.443 -1.699
-1.985 -3.436 -1.693
-1.972 -3.44 -1.691
-1.975 -3.471 -1.704
-1.961 -3.471 -1.701
-1.935 -3.45 -1.687
-1.854 -3.328 -1.621
-1.821 -3.28 -1.594
-1.568 -2.838 -1.362
-1.543 -2.812 -1.346
-1.523 -2.796 -1.335
-1.513 -2.8 -1.334
-1.503 -2.803 -1.334
-1.488 -2.794 -1.327
-1.478 -2.785 -1.321
-1.47 -2.793 -1.323
-1.455 -2.785 -1.316
-1.442 -2.781 -1.312
-1.434 -2.788 -1.313
-1.412 -2.766 -1.3
-1.412 -2.787 -1.308
-1.407 -2.789 -1.308
-1.385 -2.766 -1.294
-1.377 -2.772 -1.295
-1.369 -2.778 -1.295
-1.356 -2.772 -1.29
-1.344 -2.77 -1.287
-1.335 -2.774 -1.287
-1.325 -2.764 -1.281
-1.314 -2.762 -1.278
-1.307 -2.771 -1.28
-1.29 -2.757 -1.271
-1.283 -2.764 -1.273
-1.279 -2.778 -1.278
-1.26 -2.759 -1.266
-1.253 -2.756 -1.264
-1.253 -2.78 -1.274
-1.24 -2.774 -1.269
-1.218 -2.748 -1.254
-1.216 -2.766 -1.261
-1.2 -2.754 -1.253
-1.189 -2.751 -1.25
-1.187 -2.757 -1.252
-1.175 -2.753 -1.248
-1.163 -2.748 -1.244
-1.154 -2.752 -1.244
-1.139 -2.74 -1.236
-1.126 -2.732 -1.231
-1.123 -2.737 -1.232
-1.107 -2.722 -1.223
-1.106 -2.746 -1.233
-1.088 -2.725 -1.222
-1.08 -2.729 -1.222
-1.076 -2.746 -1.228
-1.095 -2.821 -1.263
-1.387 -3.611 -1.647
-1.392 -3.66 -1.669
-1.38 -3.661 -1.667
-1.371 -3.673 -1.671
-1.357 -3.671 -1.668
-1.342 -3.665 -1.663
-1.032 -2.842 -1.262
-1.33 -3.667 -1.662
-0.987 -2.743 -1.212
-0.978 -2.744 -1.212
-0.965 -2.735 -1.206
-0.956 -2.738 -1.206
-0.941 -2.722 -1.197
-0.932 -2.723 -1.196
-0.929 -2.728 -1.197
-0.917 -2.719 -1.192
-0.906 -2.715 -1.188
-0.899 -2.723 -1.191
-0.888 -2.717 -1.187
-0.876 -2.709 -1.182
-0.866 -2.707 -1.179
-0.866 -2.724 -1.187
-0.852 -2.707 -1.178
-0.85 -2.733 -1.188
-0.838 -2.725 -1.183
-0.83 -2.728 -1.183
-0.823 -2.737 -1.187
-0.812 -2.729 -1.182
-0.805 -2.723 -1.178
-0.804 -2.752 -1.191
-0.789 -2.732 -1.18
-0.78 -2.733 -1.179
-0.77 -2.728 -1.176
-0.764 -2.741 -1.181
-0.761 -2.746 -1.183
-0.752 -2.746 -1.182
-0.745 -2.758 -1.186
-0.744 -2.79 -1.2
-0.748 -2.842 -1.223
-0.736 -2.832 -1.217
-0.722 -2.813 -1.207
-0.761 -2.99 -1.29
-0.928 -3.722 -1.632
-0.741 -3.033 -1.307
-0.718 -2.977 -1.28
-0.661 -2.773 -1.183
-0.651 -2.768 -1.18
-0.645 -2.762 -1.177
-0.636 -2.764 -1.177
-0.632 -2.784 -1.185
-0.615 -2.748 -1.168
-0.606 -2.749 -1.167
-0.6 -2.765 -1.173
-0.596 -2.788 -1.183
-0.589 -2.775 -1.177
-0.578 -2.768 -1.173
-0.566 -2.752 -1.164
-0.555 -2.744 -1.16
-0.549 -2.755 -1.164
-0.536 -2.733 -1.153
-0.528 -2.739 -1.155
-0.525 -2.75 -1.16
-0.515 -2.745 -1.157
-0.506 -2.741 -1.154
-0.498 -2.746 -1.156
-0.488 -2.739 -1.152
-0.478 -2.733 -1.149
-0.474 -2.763 -1.162
-0.468 -2.755 -1.158
-0.458 -2.744 -1.152
-0.451 -2.76 -1.158
-0.441 -2.75 -1.153
-0.431 -2.746 -1.151
-0.427 -2.778 -1.165
-0.416 -2.763 -1.158
-0.41 -2.753 -1.153
-0.404 -2.773 -1.161
-0.393 -2.758 -1.153
-0.385 -2.766 -1.157
-0.379 -2.783 -1.164
-0.371 -2.79 -1.167
-0.364 -2.804 -1.173
-0.363 -2.839 -1.188
-0.354 -2.838 -1.188
-0.346 -2.848 -1.192
-0.341 -2.887 -1.209
-0.332 -2.89 -1.21
-0.33 -2.953 -1.238
-0.345 -3.154 -1.33
-0.311 -2.907 -1.217
-0.301 -2.901 -1.213
-0.278 -2.751 -1.144
-0.267 -2.725 -1.132
-0.26 -2.735 -1.136
-0.252 -2.752 -1.144
-0.247 -2.738 -1.137
-0.238 -2.731 -1.134
-0.231 -2.754 -1.144
-0.221 -2.737 -1.135
-0.212 -2.739 -1.136
-0.204 -2.738 -1.135
-0.195 -2.733 -1.133
-0.191 -2.741 -1.136
-0.183 -2.748 -1.139
-0.173 -2.734 -1.133
-0.164 -2.728 -1.129
-0.157 -2.748 -1.139
-0.148 -2.741 -1.135
-0.143 -2.743 -1.136
-0.136 -2.773 -1.149
-0.128 -2.79 -1.157
-0.118 -2.745 -1.136
-0.109 -2.749 -1.138
-0.1 -2.744 -1.135
-0.092 -2.749 -1.138
-0.088 -2.771 -1.148
-0.079 -2.757 -1.141
-0.07 -2.752 -1.139
-0.062 -2.759 -1.142
-0.053 -2.747 -1.136
-0.044 -2.756 -1.14
-0.036 -2.747 -1.136
-0.031 -2.745 -1.135
-0.023 -2.754 -1.139
-0.014 -2.745 -1.135
-0.006 -2.733 -1.129
0.003 -2.744 -1.134
0.012 -2.751 -1.138
0.02 -2.744 -1.134
0.025 -2.747 -1.136
0.033 -2.74 -1.133
0.042 -2.76 -1.142
0.051 -2.767 -1.145
0.059 -2.747 -1.136
0.068 -2.746 -1.136
0.077 -2.752 -1.139
0.082 -2.772 -1.148
0.09 -2.768 -1.146
0.098 -2.747 -1.137
0.107 -2.758 -1.142
0.115 -2.745 -1.136
0.126 -2.783 -1.153
0.13 -2.782 -1.153
0.139 -2.771 -1.149
0.147 -2.762 -1.144
0.156 -2.767 -1.147
0.166 -2.782 -1.154
0.174 -2.776 -1.152
0.182 -2.774 -1.151
0.186 -2.766 -1.148
0.197 -2.786 -1.157
0.205 -2.782 -1.155
0.214 -2.785 -1.157
0.224 -2.793 -1.161
0.446 -2.842 -1.195
0.451 -2.817 -1.184
0.46 -2.819 -1.186
0.467 -2.809 -1.182
0.471 -2.803 -1.179
0.48 -2.805 -1.181
0.593 -2.82 -1.197
1.31 -2.758 -1.275
1.328 -2.771 -1.285
1.344 -2.784 -1.293
1.348 -2.77 -1.288
1.358 -2.769 -1.29
1.376 -2.782 -1.299
1.391 -2.789 -1.304
1.395 -2.787 -1.304
1.416 -2.805 -1.316
1.417 -2.786 -1.309
1.435 -2.8 -1.318
1.444 -2.797 -1.319
1.454 -2.794 -1.319
1.466 -2.796 -1.323
1.475 -2.801 -1.327
1.484 -2.797 -1.327
1.497 -2.8 -1.331
1.51 -2.803 -1.335
1.518 -2.797 -1.334
1.532 -2.802 -1.339
1.544 -2.812 -1.346
1.552 -2.807 -1.346
1.568 -2.813 -1.352
1.584 -2.821 -1.358
1.594 -2.819 -1.36
1.606 -2.819 -1.363
1.616 -2.815 -1.363
1.627 -2.815 -1.366
1.639 -2.825 -1.373
1.659 -2.838 -1.382
1.668 -2.833 -1.382
1.68 -2.833 -1.385
1.697 -2.841 -1.392
1.698 -2.824 -1.386
1.709 -2.83 -1.391
1.74 -2.862 -1.411
1.744 -2.847 -1.406
1.772 -2.873 -1.422
1.77 -2.85 -1.413
1.771 -2.832 -1.407
1.783 -2.831 -1.409
1.798 -2.845 -1.418
1.806 -2.838 -1.417
1.836 -2.864 -1.435
1.855 -2.874 -1.443
1.865 -2.869 -1.444
1.886 -2.882 -1.454
1.905 -2.891 -1.462
1.901 -2.874 -1.455
1.916 -2.877 -1.46
1.959 -2.921 -1.487
2.005 -2.969 -1.517
2.191 -3.219 -1.659
2.219 -3.237 -1.673
2.225 -3.224 -1.67
2.23 -3.221 -1.67
2.249 -3.226 -1.676
2.245 -3.199 -1.665
2.26 -3.2 -1.67
2.278 -3.203 -1.675
2.279 -3.184 -1.669
2.287 -3.174 -1.667
2.301 -3.182 -1.674
2.297 -3.156 -1.663
2.336 -3.188 -1.685
2.338 -3.17 -1.679
2.32 -3.125 -1.658
2.23 -2.986 -1.582
2.217 -2.959 -1.569
2.205 -2.925 -1.553
2.202 -2.902 -1.544
2.21 -2.893 -1.543
2.203 -2.866 -1.532
2.211 -2.858 -1.531
2.219 -2.85 -1.53
2.214 -2.835 -1.523
2.219 -2.822 -1.52
2.238 -2.828 -1.528
2.249 -2.824 -1.529
2.27 -2.832 -1.538
2.281 -2.826 -1.539
2.281 -2.809 -1.533
2.303 -2.827 -1.546
2.322 -2.832 -1.553
2.336 -2.83 -1.557
2.353 -2.833 -1.562
2.375 -2.841 -1.572
2.387 -2.837 -1.574
2.407 -2.842 -1.582
2.42 -2.848 -1.587
2.433 -2.846 -1.591
2.454 -2.852 -1.599
2.47 -2.853 -1.604
2.485 -2.852 -1.608
2.505 -2.856 -1.616
2.526 -2.862 -1.624
2.522 -2.848 -1.618
2.546 -2.856 -1.628
2.563 -2.858 -1.634
2.583 -2.862 -1.641
2.602 -2.864 -1.648
2.674 -2.924 -1.69
2.686 -2.928 -1.695
2.687 -2.91 -1.689
2.7 -2.906 -1.692
2.705 -2.893 -1.689
2.712 -2.882 -1.688
2.731 -2.884 -1.694
2.731 -2.867 -1.689
2.738 -2.865 -1.69
2.752 -2.861 -1.694
2.751 -2.842 -1.687
2.773 -2.847 -1.695
2.787 -2.843 -1.699
2.789 -2.828 -1.694
2.801 -2.822 -1.696
2.806 -2.819 -1.697
2.813 -2.807 -1.695
2.817 -2.795 -1.693
2.837 -2.796 -1.699
2.839 -2.781 -1.695
2.85 -2.774 -1.697
2.871 -2.777 -1.704
2.88 -2.777 -1.708
2.872 -2.752 -1.697
2.89 -2.751 -1.703
2.891 -2.735 -1.698
2.9 -2.727 -1.699
2.909 -2.718 -1.699
2.913 -2.713 -1.699
2.93 -2.712 -1.704
2.936 -2.7 -1.702
2.951 -2.697 -1.706
2.977 -2.703 -1.717
2.969 -2.679 -1.707
2.971 -2.664 -1.703
2.972 -2.657 -1.701
2.987 -2.654 -1.705
2.997 -2.645 -1.706
3.003 -2.634 -1.704
3.019 -2.631 -1.709
3.023 -2.618 -1.707
3.037 -2.613 -1.71
3.062 -2.626 -1.723
3.048 -2.598 -1.709
3.066 -2.596 -1.715
3.07 -2.583 -1.713
3.067 -2.564 -1.706
3.077 -2.557 -1.708
3.107 -2.565 -1.72
3.118 -2.565 -1.724
3.116 -2.548 -1.718
3.125 -2.539 -1.719
3.116 -2.516 -1.709
3.131 -2.511 -1.713
3.153 -2.513 -1.722
3.146 -2.499 -1.715
3.161 -2.495 -1.719
3.179 -2.492 -1.725
3.163 -2.465 -1.712
3.18 -2.461 -1.717
3.199 -2.46 -1.723
3.059 -2.338 -1.639
3.188 -2.42 -1.708
1.471 -0.975 -0.688
3.498 -2.123 -1.749
3.513 -2.117 -1.753
3.507 -2.098 -1.747
3.485 -2.071 -1.732
3.496 -2.063 -1.734
3.503 -2.059 -1.736
3.511 -2.049 -1.737
3.7 -1.715 -1.743
3.712 -1.713 -1.747
3.713 -1.699 -1.745
3.713 -1.685 -1.743
3.716 -1.673 -1.742
3.722 -1.661 -1.742
3.729 -1.65 -1.743
3.744 -1.643 -1.747
3.753 -1.64 -1.751
3.755 -1.627 -1.749
3.752 -1.611 -1.745
3.758 -1.6 -1.746
3.788 -1.599 -1.758
3.76 -1.573 -1.742
3.758 -1.559 -1.738
3.76 -1.553 -1.738
3.781 -1.547 -1.746
3.789 -1.537 -1.747
3.79 -1.523 -1.746
3.793 -1.511 -1.745
3.8 -1.499 -1.746
3.802 -1.493 -1.746
3.813 -1.484 -1.749
3.823 -1.474 -1.752
3.833 -1.464 -1.754
3.846 -1.455 -1.758
3.854 -1.444 -1.76
3.857 -1.431 -1.759
3.874 -1.431 -1.767
3.891 -1.423 -1.772
3.901 -1.413 -1.775
3.886 -1.394 -1.766
3.899 -1.385 -1.77
3.89 -1.368 -1.763
3.887 -1.353 -1.76
3.901 -1.351 -1.766
3.878 -1.329 -1.752
3.891 -1.32 -1.757
9.359 3.063 -4.476
9.334 3.087 -4.468
3.71 1.374 -1.729
3.689 1.38 -1.72
3.697 1.396 -1.726
3.675 1.401 -1.718
3.681 1.41 -1.722
3.679 1.422 -1.723
3.659 1.428 -1.715
3.668 1.445 -1.722
3.653 1.452 -1.717
3.642 1.461 -1.714
3.651 1.478 -1.72
3.654 1.485 -1.723
3.639 1.493 -1.718
3.641 1.507 -1.721
3.636 1.518 -1.721
3.628 1.529 -1.72
3.616 1.537 -1.716
3.608 1.547 -1.715
3.604 1.552 -1.714
3.618 1.571 -1.723
3.608 1.58 -1.72
3.604 1.592 -1.721
3.594 1.602 -1.719
3.589 1.613 -1.719
3.586 1.625 -1.72
3.596 1.636 -1.726
3.593 1.648 -1.727
3.593 1.662 -1.73
3.583 1.671 -1.727
3.434 1.958 -1.727
3.4 1.952 -1.712
3.4 1.96 -1.714
3.394 1.97 -1.714
3.414 1.996 -1.728
3.405 2.005 -1.726
3.408 2.021 -1.731
3.358 2.006 -1.708
3.384 2.036 -1.726
3.361 2.029 -1.715
3.365 2.047 -1.72
3.102 2.397 -1.712
3.079 2.395 -1.703
3.078 2.402 -1.704
3.077 2.417 -1.709
3.055 2.416 -1.7
3.048 2.425 -1.7
3.049 2.442 -1.705
3.03 2.442 -1.698
3.019 2.449 -1.697
3.028 2.464 -1.704
3.003 2.46 -1.694
2.997 2.471 -1.695
3.002 2.49 -1.703
2.977 2.486 -1.693
2.981 2.505 -1.699
2.975 2.516 -1.701
2.962 2.513 -1.695
2.955 2.523 -1.696
2.969 2.551 -1.709
2.93 2.534 -1.69
2.927 2.548 -1.693
2.944 2.578 -1.709
2.903 2.559 -1.688
2.903 2.567 -1.691
2.899 2.58 -1.693
2.887 2.585 -1.691
2.885 2.6 -1.695
2.888 2.619 -1.702
2.866 2.616 -1.693
2.864 2.621 -1.694
2.859 2.634 -1.697
2.846 2.638 -1.693
2.833 2.643 -1.691
2.833 2.66 -1.696
2.815 2.66 -1.69
2.814 2.675 -1.694
2.812 2.682 -1.696
2.796 2.683 -1.691
2.785 2.69 -1.689
2.775 2.697 -1.688
2.778 2.717 -1.696
2.755 2.712 -1.687
2.748 2.722 -1.687
2.739 2.721 -1.684
2.734 2.733 -1.687
2.737 2.753 -1.694
2.718 2.752 -1.687
2.709 2.76 -1.687
2.701 2.769 -1.687
2.702 2.788 -1.694
2.686 2.78 -1.687
2.68 2.791 -1.688
2.665 2.793 -1.684
2.661 2.807 -1.687
2.644 2.806 -1.682
2.636 2.816 -1.682
2.627 2.824 -1.682
2.627 2.832 -1.685
2.615 2.837 -1.683
2.612 2.852 -1.687
2.592 2.848 -1.68
2.574 2.846 -1.673
2.588 2.879 -1.689
2.57 2.878 -1.683
2.573 2.89 -1.688
2.557 2.89 -1.683
2.55 2.901 -1.685
2.535 2.902 -1.681
2.533 2.918 -1.686
2.524 2.926 -1.686
2.507 2.926 -1.681
2.5 2.927 -1.679
2.491 2.935 -1.679
2.487 2.948 -1.682
2.486 2.966 -1.688
2.463 2.958 -1.679
2.467 2.981 -1.688
2.454 2.985 -1.686
2.441 2.979 -1.68
2.431 2.985 -1.679
2.423 2.994 -1.68
2.417 3.006 -1.682
2.401 3.007 -1.678
2.387 3.008 -1.675
2.389 3.021 -1.68
2.374 3.021 -1.676
2.374 3.04 -1.682
2.369 3.053 -1.686
2.355 3.055 -1.682
2.346 3.064 -1.683
2.338 3.072 -1.684
2.327 3.069 -1.68
2.319 3.078 -1.681
2.312 3.089 -1.683
2.285 3.073 -1.67
2.286 3.095 -1.678
2.286 3.115 -1.686
2.266 3.108 -1.677
2.263 3.114 -1.679
2.252 3.12 -1.678
2.242 3.127 -1.678
2.239 3.143 -1.683
2.223 3.141 -1.678
2.219 3.157 -1.683
2.207 3.161 -1.682
2.198 3.158 -1.678
2.18 3.153 -1.671
2.17 3.16 -1.671
2.163 3.172 -1.674
2.164 3.195 -1.683
2.145 3.188 -1.676
2.133 3.192 -1.674
2.127 3.194 -1.673
2.121 3.206 -1.677
2.109 3.21 -1.675
2.098 3.215 -1.674
2.092 3.228 -1.677
2.08 3.233 -1.677
2.066 3.233 -1.673
2.064 3.241 -1.676
2.052 3.244 -1.674
2.044 3.254 -1.676
2.032 3.257 -1.674
2.024 3.268 -1.677
2.015 3.276 -1.677
2.007 3.285 -1.679
1.995 3.278 -1.673
1.989 3.292 -1.677
1.973 3.289 -1.672
1.963 3.295 -1.672
1.953 3.303 -1.673
1.944 3.31 -1.674
1.934 3.316 -1.674
1.927 3.318 -1.673
1.921 3.33 -1.677
1.906 3.328 -1.672
1.895 3.334 -1.672
1.885 3.34 -1.672
1.872 3.343 -1.671
1.858 3.343 -1.667
1.854 3.347 -1.668
1.847 3.359 -1.671
1.836 3.365 -1.671
1.821 3.361 -1.666
1.818 3.381 -1.674
1.808 3.388 -1.675
1.797 3.394 -1.675
1.791 3.395 -1.674
1.778 3.396 -1.671
1.765 3.397 -1.669
1.754 3.402 -1.669
1.751 3.422 -1.677
1.738 3.423 -1.674
1.723 3.42 -1.67
1.718 3.425 -1.671
1.708 3.432 -1.671
1.697 3.437 -1.671
1.687 3.442 -1.671
1.679 3.454 -1.675
1.667 3.456 -1.673
1.655 3.46 -1.672
1.651 3.466 -1.674
1.642 3.474 -1.676
1.626 3.469 -1.671
1.614 3.473 -1.67
1.607 3.484 -1.673
1.593 3.483 -1.67
1.579 3.481 -1.666
1.574 3.485 -1.667
1.558 3.48 -1.662
1.547 3.484 -1.661
1.534 3.485 -1.66
1.52 3.482 -1.655
1.507 3.483 -1.654
1.494 3.483 -1.651
1.487 3.482 -1.649
1.473 3.478 -1.645
1.46 3.48 -1.644
1.444 3.472 -1.638
1.433 3.477 -1.638
1.427 3.492 -1.643
1.407 3.474 -1.632
1.403 3.48 -1.633
1.392 3.484 -1.633
1.378 3.482 -1.63
1.365 3.481 -1.627
1.354 3.485 -1.627
1.333 3.464 -1.615
1.324 3.472 -1.616
1.325 3.491 -1.625
1.302 3.464 -1.61
1.289 3.463 -1.607
1.281 3.474 -1.611
1.263 3.46 -1.601
1.252 3.464 -1.601
1.243 3.473 -1.604
1.232 3.459 -1.596
1.224 3.472 -1.6
1.212 3.472 -1.599
1.197 3.464 -1.593
1.187 3.469 -1.594
1.177 3.476 -1.595
1.159 3.46 -1.585
1.154 3.461 -1.585
1.147 3.477 -1.591
1.126 3.451 -1.577
1.122 3.474 -1.586
1.109 3.472 -1.584
1.094 3.462 -1.577
1.086 3.457 -1.573
1.074 3.458 -1.573
1.059 3.446 -1.565
1.049 3.453 -1.567
1.042 3.47 -1.573
1.026 3.456 -1.565
1.015 3.459 -1.565
1.009 3.457 -1.563
0.997 3.457 -1.562
0.983 3.448 -1.556
0.972 3.453 -1.556
0.958 3.443 -1.551
0.95 3.457 -1.556
0.938 3.456 -1.554
0.924 3.449 -1.549
0.914 3.433 -1.54
0.906 3.444 -1.545
0.89 3.43 -1.536
0.881 3.44 -1.54
0.871 3.444 -1.54
0.856 3.431 -1.533
0.846 3.435 -1.534
0.842 3.444 -1.537
0.828 3.434 -1.531
0.816 3.431 -1.529
0.808 3.446 -1.535
0.795 3.436 -1.529
0.783 3.434 -1.526
0.777 3.433 -1.525
0.764 3.428 -1.522
0.754 3.431 -1.522
0.742 3.431 -1.521
0.732 3.434 -1.521
0.718 3.424 -1.515
0.708 3.429 -1.517
0.703 3.43 -1.517
0.69 3.422 -1.512
0.682 3.44 -1.519
0.667 3.423 -1.51
0.658 3.432 -1.513
0.646 3.429 -1.511
0.634 3.425 -1.508
0.624 3.431 -1.51
0.62 3.437 -1.513
0.608 3.432 -1.509
0.595 3.425 -1.505
0.587 3.437 -1.51
0.574 3.429 -1.505
0.563 3.429 -1.504
0.551 3.427 -1.502
0.545 3.42 -1.499
0.535 3.428 -1.502
0.525 3.435 -1.504
0.512 3.424 -1.498
0.501 3.423 -1.497
0.491 3.43 -1.5
0.485 3.424 -1.496
0.474 3.426 -1.496
0.463 3.423 -1.495
0.45 3.409 -1.487
0.44 3.419 -1.491
0.43 3.422 -1.492
0.418 3.415 -1.488
0.413 3.415 -1.488
0.401 3.408 -1.484
0.39 3.411 -1.485
0.379 3.41 -1.484
0.369 3.418 -1.487
0.357 3.401 -1.479
0.346 3.404 -1.48
0.342 3.419 -1.486
0.331 3.41 -1.481
0.319 3.405 -1.479
0.309 3.415 -1.483
0.298 3.411 -1.48
0.287 3.41 -1.48
0.276 3.409 -1.479
0.271 3.404 -1.476
0.26 3.41 -1.479
0.249 3.407 -1.477
0.239 3.41 -1.478
0.227 3.402 -1.474
0.216 3.392 -1.469
0.206 3.401 -1.473
0.201 3.411 -1.477
0.19 3.409 -1.476
0.179 3.405 -1.474
0.168 3.398 -1.47
0.158 3.406 -1.474
0.146 3.392 -1.467
0.136 3.396 -1.469
0.13 3.389 -1.465
0.12 3.394 -1.468
0.11 3.404 -1.472
0.098 3.39 -1.465
0.088 3.388 -1.464
0.077 3.396 -1.468
0.066 3.385 -1.463
0.061 3.398 -1.469
0.05 3.387 -1.464
0.04 3.398 -1.469
0.029 3.396 -1.468
0.019 3.398 -1.469
0.008 3.411 -1.474
-0.003 3.416 -1.477
-0.008 3.435 -1.485
-0.019 3.46 -1.497
-0.03 3.578 -1.552
-0.042 3.762 -1.638
-0.054 3.771 -1.643
-0.065 3.755 -1.635
-0.077 3.771 -1.643
-0.083 3.769 -1.642
-0.095 3.778 -1.646
-0.107 3.765 -1.64
-0.119 3.775 -1.645
-0.13 3.757 -1.637
-0.142 3.771 -1.644
-0.154 3.763 -1.64
-0.16 3.774 -1.645
-0.172 3.762 -1.64
-0.184 3.767 -1.643
-0.195 3.749 -1.634
-0.207 3.755 -1.638
-0.219 3.756 -1.638
-0.23 3.748 -1.635
-0.236 3.748 -1.635
-0.248 3.747 -1.635
-0.259 3.734 -1.629
-0.271 3.735 -1.63
-0.284 3.756 -1.64
-0.295 3.744 -1.635
-0.308 3.761 -1.644
-0.313 3.742 -1.635
-0.325 3.75 -1.639
-0.336 3.74 -1.635
-0.349 3.757 -1.644
-0.36 3.742 -1.637
-0.372 3.744 -1.638
-0.384 3.743 -1.638
-0.39 3.742 -1.638
-0.402 3.748 -1.642
-0.414 3.744 -1.64
-0.425 3.742 -1.64
-0.437 3.741 -1.64
-0.45 3.747 -1.644
-0.461 3.738 -1.64
-0.467 3.741 -1.642
-0.48 3.748 -1.646
-0.489 3.725 -1.636
-0.502 3.733 -1.64
-0.514 3.735 -1.642
-0.525 3.728 -1.639
-0.536 3.722 -1.638
-0.545 3.743 -1.648
-0.553 3.718 -1.637
-0.567 3.729 -1.643
-0.581 3.743 -1.65
-0.59 3.725 -1.643
-0.601 3.72 -1.641
-0.615 3.732 -1.648
-0.62 3.726 -1.645
-0.632 3.726 -1.646
-0.644 3.724 -1.646
-0.653 3.707 -1.639
-0.667 3.714 -1.644
-0.682 3.734 -1.654
-0.69 3.71 -1.644
-0.699 3.727 -1.652
-0.711 3.726 -1.653
-0.721 3.717 -1.649
-0.733 3.716 -1.65
-0.747 3.725 -1.655
-0.755 3.703 -1.646
-0.768 3.709 -1.65
-0.776 3.717 -1.655
-0.785 3.704 -1.649
-0.799 3.712 -1.655
-0.812 3.713 -1.656
-0.822 3.703 -1.653
-0.832 3.694 -1.649
-0.847 3.707 -1.657
-0.851 3.699 -1.654
-0.864 3.699 -1.655
-0.878 3.707 -1.66
-0.887 3.696 -1.656
-0.9 3.696 -1.658
-0.915 3.708 -1.665
-0.924 3.696 -1.66
-0.931 3.7 -1.663
-0.951 3.73 -1.679
-0.962 3.722 -1.677
-0.979 3.742 -1.687
-0.999 3.77 -1.703
-1.008 3.757 -1.698
-1.021 3.757 -1.699
-1.029 3.764 -1.704
-1.036 3.743 -1.695
-1.05 3.747 -1.698
-1.064 3.754 -1.704
-1.075 3.746 -1.701
-1.086 3.739 -1.699
-1.096 3.732 -1.698
-1.104 3.735 -1.7
-1.115 3.73 -1.699
-1.13 3.739 -1.705
-1.137 3.718 -1.697
-1.149 3.716 -1.698
-1.163 3.719 -1.701
-1.173 3.712 -1.699
-1.18 3.714 -1.701
-1.191 3.707 -1.699
-1.199 3.692 -1.694
-1.212 3.694 -1.697
-1.226 3.697 -1.7
-1.238 3.693 -1.7
-1.25 3.689 -1.7
-1.257 3.692 -1.703
-1.265 3.676 -1.697
-1.279 3.681 -1.701
-1.291 3.679 -1.702
-1.299 3.663 -1.696
-1.311 3.662 -1.698
-1.324 3.661 -1.699
-1.328 3.656 -1.698
-1.34 3.651 -1.698
-1.353 3.652 -1.7
-1.364 3.645 -1.698
-1.374 3.639 -1.698
-1.388 3.641 -1.701
-1.397 3.63 -1.698
-1.404 3.631 -1.699
-1.417 3.63 -1.701
-1.425 3.617 -1.697
-1.44 3.621 -1.701
-1.45 3.615 -1.7
-1.459 3.604 -1.697
-1.472 3.604 -1.699
-1.484 3.601 -1.7
-1.491 3.602 -1.702
-1.503 3.597 -1.702
-1.511 3.586 -1.698
-1.525 3.586 -1.701
-1.534 3.578 -1.699
-1.55 3.583 -1.704
-1.555 3.563 -1.697
-1.561 3.563 -1.698
-1.575 3.564 -1.701
-1.584 3.554 -1.698
-1.596 3.551 -1.699
-1.609 3.549 -1.701
-1.618 3.541 -1.699
-1.627 3.531 -1.697
-1.639 3.542 -1.704
-1.648 3.531 -1.701
-1.658 3.525 -1.7
-1.671 3.524 -1.703
-1.678 3.509 -1.698
-1.693 3.512 -1.702
-1.7 3.513 -1.704
-1.706 3.498 -1.698
-1.722 3.504 -1.704
-1.735 3.501 -1.706
-1.74 3.485 -1.7
-1.755 3.487 -1.704
-1.766 3.48 -1.704
-1.773 3.468 -1.7
-1.78 3.468 -1.702
-1.799 3.477 -1.709
-1.801 3.456 -1.701
-1.814 3.453 -1.703
-1.83 3.459 -1.709
-1.835 3.442 -1.703
-1.847 3.437 -1.704
-1.858 3.444 -1.709
-1.864 3.43 -1.704
-1.877 3.428 -1.706
-1.889 3.425 -1.708
-1.897 3.414 -1.705
-1.911 3.413 -1.708
-1.919 3.404 -1.706
-1.924 3.399 -1.705
-1.934 3.392 -1.704
-1.95 3.395 -1.709
-1.956 3.381 -1.705
-1.969 3.379 -1.708
-1.985 3.383 -1.713
-1.983 3.367 -1.706
-1.997 3.365 -1.709
-2.012 3.367 -1.713
-2.013 3.345 -1.704
-2.03 3.35 -1.71
-2.042 3.346 -1.712
-2.046 3.329 -1.706
-2.06 3.327 -1.709
-2.07 3.332 -1.713
-2.075 3.317 -1.709
-2.084 3.308 -1.707
-2.097 3.306 -1.709
-2.108 3.301 -1.71
-2.12 3.296 -1.711
-2.135 3.297 -1.715
-2.134 3.284 -1.71
-2.149 3.284 -1.714
-2.164 3.284 -1.718
-2.166 3.265 -1.711
-2.181 3.266 -1.715
-2.192 3.259 -1.715
-2.194 3.24 -1.709
-2.207 3.249 -1.715
-2.223 3.251 -1.72
-2.229 3.238 -1.717
-2.251 3.247 -1.726
-2.274 3.26 -1.737
-2.789 2.817 -1.732
-2.824 2.835 -1.75
-2.814 2.807 -1.737
-2.836 2.811 -1.746
-3.169 2.452 -1.753
-3.181 2.446 -1.755
-3.175 2.425 -1.747
-3.179 2.42 -1.747
-3.193 2.415 -1.751
-3.205 2.408 -1.753
-3.211 2.397 -1.753
-3.228 2.394 -1.758
-3.228 2.378 -1.753
-3.234 2.367 -1.753
-3.242 2.365 -1.755
-3.246 2.353 -1.753
-3.264 2.35 -1.759
-3.293 2.356 -1.772
-3.436 -2.149 -1.774
-3.421 -2.184 -1.776
-3.4 -2.186 -1.769
-3.411 -2.208 -1.779
-3.39 -2.202 -1.769
-3.39 -2.217 -1.773
-3.397 -2.237 -1.78
-3.382 -2.243 -1.776
-3.36 -2.243 -1.768
-3.353 -2.254 -1.768
-3.352 -2.268 -1.771
-3.356 -2.279 -1.775
-3.353 -2.292 -1.778
-3.342 -2.3 -1.775
-3.334 -2.31 -1.775
-3.339 -2.329 -1.782
-3.314 -2.327 -1.772
-3.309 -2.331 -1.771
-3.309 -2.347 -1.775
-2.946 -2.687 -1.743
-2.943 -2.701 -1.747
-2.928 -2.705 -1.742
-2.923 -2.717 -1.745
-2.921 -2.733 -1.749
-2.901 -2.731 -1.742
-2.911 -2.749 -1.751
-2.289 -3.16 -1.704
-2.288 -3.179 -1.71
-2.272 -3.177 -1.705
-2.262 -3.185 -1.705
-2.253 -3.193 -1.706
-2.246 -3.195 -1.705
-2.235 -3.201 -1.704
-2.22 -3.2 -1.7
-2.219 -3.221 -1.708
-2.205 -3.222 -1.704
-2.191 -3.223 -1.701
-2.183 -3.222 -1.698
-2.181 -3.24 -1.705
-2.172 -3.249 -1.706
-2.154 -3.245 -1.7
-2.148 -3.258 -1.704
-2.132 -3.255 -1.698
-2.124 -3.265 -1.7
-2.121 -3.273 -1.703
-2.105 -3.271 -1.698
-2.092 -3.273 -1.695
-2.079 -3.275 -1.693
-2.061 -3.269 -1.686
-2.058 -3.288 -1.693
-2.054 -3.303 -1.698
-2.049 -3.308 -1.698
-2.034 -3.307 -1.694
-2.027 -3.318 -1.697
-2.012 -3.318 -1.693
-2.001 -3.323 -1.693
-1.992 -3.332 -1.694
-1.976 -3.329 -1.689
-1.974 -3.337 -1.692
-1.964 -3.345 -1.693
-1.944 -3.334 -1.683
-1.938 -3.347 -1.687
-1.936 -3.369 -1.696
-1.918 -3.361 -1.688
-1.908 -3.369 -1.689
-1.905 -3.376 -1.692
-1.882 -3.36 -1.68
-1.876 -3.374 -1.684
-1.873 -3.394 -1.692
-1.85 -3.378 -1.68
-1.839 -3.382 -1.679
-1.778 -3.296 -1.63
-1.641 -3.058 -1.502
-1.559 -2.93 -1.431
-1.496 -2.834 -1.378
-1.471 -2.808 -1.362
-1.444 -2.779 -1.344
-1.441 -2.795 -1.35
-1.43 -2.795 -1.348
-1.419 -2.784 -1.341
-1.408 -2.784 -1.338
-1.394 -2.778 -1.333
-1.383 -2.778 -1.331
-1.376 -2.785 -1.333
-1.357 -2.77 -1.322
-1.344 -2.765 -1.317
-1.342 -2.773 -1.321
-1.326 -2.761 -1.312
-1.316 -2.764 -1.311
-1.307 -2.766 -1.311
-1.296 -2.765 -1.308
-1.282 -2.76 -1.303
-1.28 -2.767 -1.305
-1.265 -2.756 -1.298
-1.257 -2.761 -1.299
-1.247 -2.762 -1.297
-1.23 -2.748 -1.288
-1.219 -2.748 -1.286
-1.209 -2.747 -1.283
-1.201 -2.743 -1.28
-1.193 -2.748 -1.281
-1.18 -2.742 -1.276
-1.169 -2.739 -1.272
-1.172 -2.769 -1.286
-1.158 -2.761 -1.28
-1.146 -2.756 -1.276
-1.139 -2.752 -1.272
-1.129 -2.753 -1.272
-1.114 -2.74 -1.263
-1.093 -2.714 -1.248
-1.087 -2.724 -1.251
-1.09 -2.756 -1.266
-1.387 -3.537 -1.655
-1.099 -2.803 -1.288
-1.388 -3.571 -1.671
-1.371 -3.56 -1.663
-1.364 -3.577 -1.669
-1.351 -3.574 -1.666
-1.307 -3.494 -1.623
-1.089 -2.95 -1.35
-1 -2.728 -1.239
-0.988 -2.723 -1.234
-0.975 -2.714 -1.229
-0.966 -2.715 -1.228
-0.952 -2.704 -1.221
-0.943 -2.706 -1.22
-0.929 -2.692 -1.212
-0.939 -2.734 -1.232
-0.922 -2.713 -1.22
-0.92 -2.733 -1.229
-0.91 -2.732 -1.227
-0.891 -2.706 -1.212
-0.88 -2.7 -1.208
-0.879 -2.712 -1.213
-0.872 -2.718 -1.215
-0.862 -2.718 -1.213
-0.856 -2.729 -1.218
-0.85 -2.738 -1.221
-0.84 -2.736 -1.218
-0.829 -2.732 -1.215
-0.824 -2.731 -1.214
-0.817 -2.737 -1.216
-0.806 -2.735 -1.213
-0.793 -2.721 -1.206
-0.788 -2.736 -1.212
-0.777 -2.73 -1.207
-0.769 -2.734 -1.208
