ply
format ascii 1.0
comment Created by Open3D
element vertex 2443
property double x
property double y
property double z
end_header
3.669 2.82 -1.688
3.655 2.828 -1.686
3.646 2.839 -1.686
3.645 2.856 -1.689
3.634 2.857 -1.686
3.634 2.876 -1.691
3.615 2.879 -1.686
3.597 2.883 -1.681
3.611 2.914 -1.693
3.591 2.915 -1.687
3.583 2.928 -1.688
3.585 2.939 -1.691
3.57 2.946 -1.688
3.567 2.962 -1.691
3.559 2.974 -1.692
3.544 2.981 -1.689
3.525 2.983 -1.684
3.531 3.008 -1.692
3.52 3.008 -1.689
3.51 3.018 -1.688
3.507 3.035 -1.692
3.5 3.049 -1.694
3.478 3.049 -1.687
3.474 3.065 -1.69
3.463 3.074 -1.689
3.457 3.078 -1.688
3.453 3.094 -1.691
3.439 3.101 -1.689
3.428 3.111 -1.688
3.425 3.128 -1.692
3.401 3.126 -1.685
3.401 3.146 -1.69
3.392 3.157 -1.691
3.371 3.147 -1.682
3.38 3.176 -1.692
3.365 3.181 -1.689
3.362 3.198 -1.693
3.345 3.203 -1.689
3.348 3.226 -1.696
3.325 3.223 -1.689
3.321 3.23 -1.69
3.316 3.246 -1.693
3.298 3.248 -1.688
3.293 3.264 -1.691
3.281 3.273 -1.691
3.266 3.278 -1.688
3.261 3.293 -1.691
3.255 3.298 -1.691
3.24 3.303 -1.688
3.233 3.318 -1.69
3.232 3.337 -1.695
3.212 3.338 -1.69
3.198 3.344 -1.688
3.202 3.369 -1.696
3.182 3.359 -1.688
3.174 3.372 -1.689
3.168 3.386 -1.691
3.147 3.385 -1.686
3.146 3.405 -1.691
3.128 3.407 -1.687
3.123 3.424 -1.691
3.122 3.433 -1.693
3.118 3.451 -1.697
3.098 3.45 -1.691
3.094 3.468 -1.696
3.071 3.463 -1.688
3.066 3.48 -1.692
3.057 3.491 -1.693
3.049 3.493 -1.691
3.038 3.503 -1.691
3.029 3.515 -1.693
3.018 3.524 -1.693
3.001 3.527 -1.689
2.99 3.536 -1.689
2.987 3.556 -1.694
2.967 3.543 -1.686
2.971 3.571 -1.695
2.948 3.566 -1.688
2.94 3.578 -1.689
2.935 3.596 -1.694
2.924 3.605 -1.694
2.909 3.61 -1.691
2.901 3.623 -1.694
2.897 3.63 -1.694
2.889 3.643 -1.696
2.873 3.646 -1.694
2.851 3.642 -1.687
2.849 3.663 -1.693
2.839 3.675 -1.694
2.828 3.683 -1.694
2.828 3.695 -1.698
2.816 3.704 -1.698
2.797 3.703 -1.693
2.792 3.72 -1.697
2.773 3.72 -1.693
2.757 3.723 -1.69
2.748 3.734 -1.691
2.752 3.752 -1.698
2.738 3.758 -1.696
2.726 3.766 -1.696
2.714 3.775 -1.696
2.7 3.78 -1.695
2.684 3.783 -1.692
2.683 3.807 -1.699
2.673 3.806 -1.697
2.659 3.811 -1.696
2.65 3.824 -1.698
2.648 3.847 -1.704
2.626 3.841 -1.698
2.617 3.854 -1.7
2.605 3.862 -1.7
2.601 3.869 -1.702
2.589 3.877 -1.702
2.578 3.887 -1.702
2.556 3.88 -1.695
2.547 3.894 -1.698
2.54 3.91 -1.702
2.53 3.921 -1.703
2.518 3.915 -1.699
2.507 3.926 -1.7
2.49 3.926 -1.696
2.479 3.936 -1.697
2.464 3.94 -1.696
2.464 3.967 -1.704
2.449 3.972 -1.703
2.434 3.974 -1.701
2.423 3.97 -1.697
2.419 3.992 -1.704
2.405 3.997 -1.702
2.388 3.998 -1.699
2.377 4.009 -1.701
2.368 4.021 -1.703
2.362 4.041 -1.709
2.346 4.027 -1.701
2.341 4.047 -1.707
2.319 4.038 -1.699
2.318 4.067 -1.709
2.301 4.068 -1.706
2.294 4.085 -1.71
2.278 4.085 -1.707
2.269 4.084 -1.705
2.252 4.084 -1.702
2.241 4.095 -1.704
2.225 4.095 -1.701
2.214 4.106 -1.702
2.201 4.112 -1.702
2.189 4.121 -1.703
2.179 4.118 -1.7
2.167 4.126 -1.701
2.16 4.145 -1.706
2.144 4.146 -1.704
2.133 4.158 -1.706
2.117 4.158 -1.703
2.103 4.163 -1.702
2.092 4.173 -1.704
2.084 4.175 -1.703
2.084 4.208 -1.715
2.06 4.191 -1.704
2.054 4.213 -1.711
2.033 4.204 -1.704
2.02 4.21 -1.704
2.01 4.223 -1.707
2 4.22 -1.704
1.986 4.224 -1.704
1.974 4.232 -1.704
1.962 4.242 -1.706
1.954 4.26 -1.711
1.941 4.266 -1.711
1.929 4.275 -1.712
1.918 4.27 -1.709
1.909 4.284 -1.712
1.891 4.282 -1.709
1.881 4.295 -1.712
1.867 4.301 -1.712
1.858 4.317 -1.716
1.841 4.314 -1.712
1.839 4.329 -1.718
1.82 4.321 -1.712
1.813 4.342 -1.718
1.798 4.346 -1.718
1.784 4.35 -1.717
1.768 4.35 -1.715
1.75 4.345 -1.71
1.744 4.368 -1.718
1.739 4.376 -1.72
1.728 4.389 -1.723
1.705 4.371 -1.713
1.697 4.391 -1.719
1.681 4.391 -1.717
1.667 4.396 -1.717
1.654 4.403 -1.718
1.647 4.406 -1.718
1.631 4.405 -1.715
1.617 4.409 -1.715
1.608 4.428 -1.72
1.591 4.424 -1.717
1.581 4.44 -1.721
1.565 4.439 -1.719
1.556 4.435 -1.716
1.54 4.436 -1.715
1.531 4.453 -1.72
1.51 4.439 -1.712
1.502 4.459 -1.718
1.492 4.476 -1.723
1.476 4.477 -1.722
1.465 4.466 -1.716
1.456 4.486 -1.723
1.437 4.475 -1.716
1.419 4.467 -1.711
1.412 4.496 -1.721
1.388 4.468 -1.708
1.379 4.487 -1.714
1.371 4.486 -1.712
1.356 4.49 -1.712
1.34 4.485 -1.709
1.326 4.489 -1.709
1.307 4.479 -1.703
1.294 4.485 -1.704
1.279 4.487 -1.703
1.262 4.479 -1.698
1.256 4.484 -1.699
1.239 4.479 -1.696
1.222 4.472 -1.691
1.208 4.474 -1.691
1.192 4.473 -1.688
1.178 4.476 -1.688
1.161 4.469 -1.684
1.152 4.46 -1.68
1.142 4.482 -1.687
1.123 4.466 -1.679
1.113 4.485 -1.686
1.095 4.473 -1.679
1.082 4.48 -1.68
1.066 4.474 -1.677
1.059 4.477 -1.678
1.044 4.475 -1.675
1.029 4.477 -1.675
1.014 4.474 -1.672
0.999 4.472 -1.67
0.985 4.475 -1.67
0.968 4.467 -1.666
0.953 4.467 -1.664
0.946 4.466 -1.664
0.932 4.468 -1.663
0.916 4.461 -1.659
0.903 4.47 -1.662
0.887 4.461 -1.657
0.873 4.466 -1.658
0.857 4.46 -1.654
0.85 4.459 -1.654
0.836 4.464 -1.654
0.82 4.455 -1.65
0.808 4.467 -1.654
0.791 4.455 -1.648
0.779 4.465 -1.651
0.762 4.452 -1.645
0.757 4.466 -1.65
0.741 4.458 -1.646
0.727 4.46 -1.646
0.711 4.446 -1.639
0.696 4.441 -1.636
0.683 4.454 -1.64
0.668 4.449 -1.638
0.665 4.474 -1.647
0.645 4.433 -1.63
0.632 4.443 -1.633
0.619 4.452 -1.636
0.605 4.458 -1.638
0.591 4.456 -1.636
0.576 4.446 -1.632
0.568 4.44 -1.629
0.555 4.451 -1.632
0.541 4.458 -1.635
0.527 4.452 -1.632
0.512 4.447 -1.629
0.497 4.443 -1.627
0.483 4.446 -1.627
0.469 4.444 -1.626
0.462 4.441 -1.624
0.448 4.446 -1.626
0.434 4.442 -1.624
0.42 4.441 -1.623
0.406 4.445 -1.624
0.392 4.446 -1.624
0.377 4.441 -1.622
0.369 4.423 -1.614
0.357 4.447 -1.623
0.342 4.441 -1.62
0.328 4.43 -1.616
0.314 4.444 -1.621
0.301 4.445 -1.621
0.286 4.433 -1.616
0.279 4.441 -1.619
0.265 4.433 -1.615
0.251 4.432 -1.614
0.237 4.436 -1.616
0.223 4.441 -1.617
0.209 4.426 -1.611
0.195 4.429 -1.612
0.181 4.433 -1.614
0.174 4.434 -1.614
0.16 4.423 -1.609
0.146 4.427 -1.611
0.132 4.424 -1.609
0.118 4.435 -1.614
0.104 4.439 -1.615
0.09 4.423 -1.608
0.083 4.425 -1.609
0.069 4.425 -1.609
0.056 4.42 -1.607
0.042 4.422 -1.608
0.028 4.416 -1.606
0.014 4.428 -1.61
0 4.409 -1.603
-0.007 4.428 -1.61
-0.021 4.409 -1.603
-0.035 4.411 -1.603
-0.048 4.399 -1.599
-0.062 4.412 -1.604
-0.076 4.406 -1.602
-0.09 4.399 -1.599
-0.097 4.415 -1.606
-0.111 4.408 -1.603
-0.125 4.407 -1.603
-0.139 4.412 -1.605
-0.152 4.41 -1.604
-0.166 4.408 -1.603
-0.18 4.416 -1.607
-0.195 4.427 -1.611
-0.2 4.397 -1.6
-0.215 4.411 -1.606
-0.229 4.42 -1.609
-0.242 4.393 -1.599
-0.256 4.405 -1.604
-0.27 4.404 -1.604
-0.282 4.379 -1.595
-0.292 4.424 -1.612
-0.305 4.404 -1.605
-0.319 4.412 -1.608
-0.332 4.396 -1.603
-0.346 4.399 -1.604
-0.359 4.387 -1.6
-0.373 4.388 -1.6
-0.38 4.387 -1.6
-0.394 4.393 -1.603
-0.406 4.372 -1.595
-0.422 4.387 -1.602
-0.436 4.395 -1.606
-0.45 4.392 -1.605
-0.464 4.388 -1.604
-0.47 4.382 -1.602
-0.483 4.377 -1.6
-0.498 4.388 -1.606
-0.51 4.37 -1.599
-0.525 4.376 -1.602
-0.539 4.38 -1.604
-0.552 4.372 -1.602
-0.568 4.382 -1.606
-0.574 4.377 -1.605
-0.587 4.37 -1.603
-0.601 4.372 -1.604
-0.616 4.381 -1.608
-0.629 4.373 -1.606
-0.646 4.39 -1.614
-0.658 4.377 -1.609
-0.664 4.372 -1.608
-0.678 4.37 -1.608
-0.692 4.368 -1.608
-0.706 4.367 -1.608
-0.72 4.371 -1.611
-0.735 4.37 -1.611
-0.747 4.362 -1.609
-0.757 4.376 -1.615
-0.768 4.362 -1.611
-0.781 4.356 -1.609
-0.797 4.365 -1.614
-0.811 4.364 -1.614
-0.824 4.358 -1.613
-0.841 4.368 -1.618
-0.844 4.352 -1.612
-0.863 4.373 -1.622
-0.873 4.352 -1.614
-0.888 4.357 -1.617
-0.903 4.359 -1.619
-0.913 4.338 -1.612
-0.932 4.361 -1.622
-0.945 4.354 -1.621
-0.952 4.355 -1.622
-0.967 4.359 -1.624
-0.984 4.367 -1.629
-0.993 4.345 -1.622
-1.008 4.346 -1.623
-1.023 4.35 -1.626
-1.038 4.35 -1.627
-1.044 4.349 -1.627
-1.062 4.362 -1.634
-1.072 4.342 -1.627
-1.085 4.337 -1.627
-1.102 4.348 -1.632
-1.113 4.332 -1.627
-1.13 4.344 -1.634
-1.138 4.344 -1.635
-1.149 4.334 -1.632
-1.164 4.332 -1.632
-1.181 4.341 -1.638
-1.189 4.319 -1.63
-1.206 4.328 -1.635
-1.223 4.335 -1.64
-1.227 4.324 -1.636
-1.24 4.318 -1.635
-1.259 4.332 -1.643
-1.27 4.317 -1.638
-1.282 4.31 -1.637
-1.301 4.322 -1.643
-1.311 4.307 -1.639
-1.327 4.312 -1.643
-1.334 4.31 -1.643
-1.347 4.304 -1.642
-1.363 4.308 -1.646
-1.38 4.315 -1.65
-1.39 4.3 -1.646
-1.407 4.304 -1.649
-1.423 4.309 -1.653
-1.425 4.292 -1.647
-1.443 4.302 -1.653
-1.461 4.308 -1.657
-1.47 4.293 -1.653
-1.485 4.292 -1.654
-1.498 4.285 -1.654
-1.516 4.293 -1.659
-1.526 4.299 -1.662
-1.537 4.289 -1.66
-1.553 4.289 -1.662
-1.569 4.293 -1.666
-1.58 4.281 -1.663
-1.598 4.287 -1.667
-1.615 4.29 -1.671
-1.618 4.279 -1.667
-1.634 4.281 -1.67
-1.645 4.269 -1.667
-1.667 4.286 -1.677
-1.675 4.267 -1.671
-1.696 4.281 -1.679
-1.708 4.272 -1.678
-1.725 4.275 -1.681
-1.733 4.276 -1.683
-1.747 4.272 -1.683
-1.762 4.27 -1.685
-1.782 4.28 -1.691
-1.788 4.257 -1.684
-1.809 4.269 -1.691
-1.825 4.268 -1.694
-1.829 4.26 -1.691
-1.846 4.263 -1.695
-1.857 4.252 -1.693
-1.874 4.253 -1.696
-1.886 4.244 -1.694
-1.905 4.251 -1.7
-1.919 4.247 -1.701
-1.934 4.261 -1.708
-1.942 4.245 -1.704
-1.962 4.252 -1.71
-1.977 4.249 -1.711
-1.988 4.238 -1.709
-2.001 4.232 -1.709
-2.018 4.232 -1.712
-2.035 4.234 -1.715
-2.042 4.231 -1.715
-2.069 4.253 -1.728
-2.072 4.226 -1.719
-2.095 4.238 -1.727
-2.101 4.218 -1.721
-2.125 4.232 -1.73
-2.136 4.22 -1.728
-2.152 4.236 -1.736
-2.166 4.23 -1.736
-2.182 4.228 -1.739
-2.193 4.218 -1.737
-2.212 4.221 -1.742
-2.225 4.214 -1.742
-2.244 4.218 -1.747
-2.26 4.216 -1.749
-2.268 4.214 -1.75
-2.291 4.225 -1.758
-2.303 4.216 -1.757
-2.316 4.209 -1.757
-2.337 4.214 -1.763
-2.354 4.213 -1.765
-2.372 4.214 -1.769
-2.376 4.207 -1.768
-2.393 4.206 -1.771
-2.414 4.212 -1.776
-2.427 4.204 -1.776
-2.439 4.195 -1.776
-2.462 4.203 -1.783
-2.474 4.194 -1.782
-2.486 4.198 -1.786
-2.51 4.209 -1.795
-2.524 4.201 -1.795
-2.533 4.187 -1.792
-2.55 4.185 -1.795
-2.552 4.16 -1.787
-2.573 4.164 -1.792
-2.586 4.156 -1.792
-2.585 4.14 -1.787
-2.601 4.136 -1.789
-2.617 4.133 -1.791
-2.628 4.121 -1.789
-2.642 4.115 -1.79
-2.655 4.106 -1.79
-2.671 4.103 -1.792
-2.671 4.089 -1.788
-2.688 4.087 -1.791
-2.702 4.08 -1.792
-2.711 4.067 -1.789
-2.729 4.066 -1.793
-2.745 4.062 -1.795
-2.757 4.052 -1.795
-2.767 4.052 -1.797
-2.768 4.027 -1.789
-2.787 4.027 -1.793
-2.807 4.029 -1.798
-2.816 4.015 -1.796
-2.829 4.007 -1.796
-2.836 3.99 -1.792
-2.847 3.992 -1.795
-2.859 3.983 -1.795
-2.874 3.977 -1.797
-2.884 3.965 -1.795
-2.893 3.951 -1.793
-2.913 3.952 -1.798
-2.926 3.943 -1.798
-2.939 3.936 -1.799
-2.941 3.925 -1.796
-2.951 3.913 -1.795
-2.964 3.905 -1.795
-2.982 3.903 -1.799
-2.983 3.879 -1.792
-2.999 3.874 -1.794
-3.019 3.875 -1.799
-3.02 3.864 -1.796
-3.043 3.868 -1.803
-3.059 3.863 -1.805
-3.07 3.851 -1.804
-3.068 3.824 -1.795
-3.094 3.832 -1.804
-3.099 3.814 -1.8
-3.107 3.812 -1.801
-3.121 3.805 -1.803
-3.131 3.792 -1.801
-3.571 3.456 -1.821
-3.589 3.451 -1.825
-3.609 3.449 -1.83
-3.598 3.417 -1.819
-3.599 3.408 -1.816
-3.613 3.399 -1.818
-3.626 3.39 -1.819
-3.631 3.374 -1.816
-3.641 3.361 -1.816
-3.648 3.347 -1.814
-3.667 3.343 -1.819
-3.676 3.33 -1.818
-3.669 3.313 -1.811
-3.678 3.301 -1.811
-3.697 3.296 -1.815
-3.706 3.284 -1.814
-3.708 3.265 -1.81
-3.719 3.254 -1.811
-3.729 3.242 -1.811
-3.736 3.238 -1.811
-3.755 3.233 -1.816
-3.753 3.212 -1.81
-3.769 3.205 -1.813
-3.779 3.193 -1.813
-3.796 3.187 -1.816
-3.811 3.179 -1.819
-3.81 3.168 -1.816
-3.824 3.159 -1.818
-3.827 3.142 -1.814
-3.841 3.133 -1.816
-3.848 3.119 -1.815
-3.865 3.112 -1.819
-3.869 3.096 -1.816
-3.877 3.082 -1.815
-3.886 3.08 -1.817
-3.89 3.063 -1.814
-3.909 3.057 -1.819
-3.914 3.042 -1.816
-3.931 3.035 -1.82
-3.939 3.022 -1.819
-3.939 3.002 -1.815
-3.953 3.003 -1.819
-3.961 2.989 -1.819
-3.97 2.977 -1.819
-3.984 2.968 -1.821
-3.998 2.959 -1.823
-4.004 2.944 -1.821
-4.003 2.924 -1.816
-4.013 2.922 -1.819
-4.03 2.914 -1.823
-4.03 2.895 -1.819
-4.039 2.883 -1.819
-4.053 2.873 -1.821
-4.06 2.859 -1.82
-4.074 2.85 -1.822
-4.086 2.839 -1.824
-4.092 2.834 -1.824
-4.09 2.813 -1.819
-4.09 2.794 -1.815
-4.1 2.782 -1.816
-4.113 2.773 -1.818
-4.128 2.764 -1.821
-4.135 2.75 -1.82
-4.144 2.746 -1.822
-4.147 2.729 -1.819
-4.155 2.716 -1.819
-4.161 2.701 -1.818
-4.16 2.682 -1.813
-4.182 2.678 -1.82
-4.189 2.664 -1.819
-4.199 2.661 -1.822
-4.22 2.656 -1.828
-4.226 2.641 -1.827
-4.228 2.623 -1.824
-4.239 2.612 -1.825
-4.244 2.597 -1.824
-4.257 2.586 -1.826
-4.271 2.577 -1.829
-4.263 2.562 -1.823
-4.272 2.55 -1.824
-4.277 2.535 -1.822
-4.28 2.518 -1.82
-4.293 2.508 -1.822
-4.306 2.497 -1.824
-4.304 2.478 -1.82
-4.327 2.482 -1.829
-4.33 2.466 -1.827
-4.346 2.457 -1.83
-4.34 2.436 -1.824
-4.337 2.416 -1.819
-4.356 2.409 -1.824
-4.358 2.392 -1.822
-4.362 2.385 -1.822
-4.373 2.373 -1.824
-4.379 2.359 -1.823
-4.379 2.342 -1.82
-4.398 2.334 -1.825
-4.399 2.317 -1.822
-4.424 2.312 -1.83
-4.411 2.297 -1.823
-4.43 2.289 -1.828
-4.431 2.271 -1.825
-4.44 2.258 -1.826
-4.437 2.239 -1.821
-4.459 2.233 -1.828
-4.456 2.214 -1.824
-4.464 2.209 -1.826
-4.471 2.195 -1.826
-4.473 2.179 -1.824
-4.49 2.17 -1.828
-4.503 2.159 -1.831
-4.5 2.14 -1.827
-4.503 2.124 -1.825
-4.507 2.117 -1.825
-4.522 2.107 -1.829
-4.525 2.091 -1.827
-4.525 2.074 -1.824
-4.531 2.059 -1.824
-4.558 2.054 -1.833
-4.553 2.035 -1.828
-4.559 2.02 -1.828
-4.562 2.013 -1.828
-4.577 2.003 -1.832
-4.578 1.986 -1.829
-4.586 1.972 -1.83
-4.596 1.959 -1.832
-4.61 1.948 -1.835
-4.613 1.933 -1.834
-4.611 1.923 -1.832
-4.634 1.916 -1.839
-4.626 1.896 -1.833
-4.631 1.88 -1.832
-4.134 -1.986 -1.672
-4.114 -1.984 -1.664
-4.106 -1.996 -1.664
-4.105 -2.012 -1.666
-4.075 -2.013 -1.656
-4.082 -2.033 -1.662
-4.064 -2.039 -1.656
-4.067 -2.057 -1.661
-4.043 -2.053 -1.651
-4.028 -2.061 -1.648
-4.03 -2.078 -1.651
-4.018 -2.088 -1.649
-4.013 -2.101 -1.65
-4.005 -2.113 -1.649
-3.997 -2.125 -1.648
-3.985 -2.135 -1.646
-3.98 -2.14 -1.646
-3.975 -2.154 -1.646
-3.973 -2.169 -1.648
-3.95 -2.172 -1.641
-3.948 -2.187 -1.643
-3.946 -2.202 -1.646
-3.923 -2.206 -1.638
-3.918 -2.211 -1.638
-3.916 -2.226 -1.64
-3.909 -2.238 -1.64
-3.898 -2.249 -1.638
-3.901 -2.266 -1.643
-3.874 -2.267 -1.634
-3.887 -2.291 -1.643
-3.878 -2.294 -1.64
-3.877 -2.31 -1.643
-3.857 -2.315 -1.638
-3.856 -2.331 -1.64
-3.844 -2.34 -1.638
-3.832 -2.349 -1.636
-3.818 -2.357 -1.633
-3.823 -2.368 -1.637
-3.823 -2.385 -1.64
-3.803 -2.389 -1.635
-3.788 -2.396 -1.631
-3.782 -2.409 -1.632
-3.785 -2.428 -1.637
-3.769 -2.434 -1.633
-3.77 -2.443 -1.635
-3.749 -2.446 -1.629
-3.749 -2.463 -1.632
-3.739 -2.474 -1.632
-3.729 -2.483 -1.63
-3.725 -2.498 -1.632
-3.717 -2.51 -1.632
-3.706 -2.51 -1.629
-3.701 -2.524 -1.63
-3.698 -2.539 -1.632
-3.685 -2.547 -1.63
-3.683 -2.563 -1.633
-3.672 -2.573 -1.632
-3.661 -2.582 -1.63
-3.66 -2.599 -1.634
-3.637 -2.59 -1.624
-3.627 -2.601 -1.624
-3.64 -2.628 -1.634
-3.609 -2.622 -1.623
-3.617 -2.646 -1.631
-3.592 -2.645 -1.623
-3.604 -2.671 -1.632
-3.587 -2.668 -1.627
-3.586 -2.684 -1.63
-3.571 -2.69 -1.627
-3.562 -2.701 -1.627
-3.549 -2.709 -1.624
-3.545 -2.724 -1.627
-3.529 -2.729 -1.623
-3.518 -2.729 -1.619
-3.524 -2.751 -1.627
-3.513 -2.761 -1.626
-3.497 -2.766 -1.622
-3.484 -2.774 -1.62
-3.471 -2.781 -1.618
-3.471 -2.799 -1.622
-3.471 -2.808 -1.624
-3.451 -2.81 -1.619
-3.445 -2.823 -1.62
-3.452 -2.847 -1.628
-3.431 -2.848 -1.622
-3.422 -2.859 -1.622
-3.406 -2.864 -1.619
-3.405 -2.871 -1.62
-3.396 -2.882 -1.62
-3.389 -2.895 -1.622
-3.383 -2.908 -1.623
-3.357 -2.904 -1.614
-3.363 -2.928 -1.622
-3.355 -2.94 -1.623
-3.347 -2.941 -1.621
-3.34 -2.954 -1.622
-3.331 -2.965 -1.622
-3.309 -2.964 -1.616
-3.309 -2.983 -1.621
-3.3 -2.994 -1.621
-3.278 -2.993 -1.614
-3.273 -3.007 -1.616
-3.271 -3.014 -1.618
-3.26 -3.023 -1.617
-3.256 -3.039 -1.62
-3.251 -3.053 -1.622
-3.229 -3.051 -1.616
-3.217 -3.059 -1.614
-3.204 -3.066 -1.613
-3.201 -3.073 -1.614
-3.191 -3.083 -1.614
-3.185 -3.097 -1.616
-3.174 -3.105 -1.615
-3.159 -3.11 -1.612
-3.151 -3.121 -1.613
-3.133 -3.123 -1.608
-3.132 -3.132 -1.611
-3.127 -3.147 -1.614
-3.12 -3.16 -1.615
-3.111 -3.171 -1.616
-3.096 -3.175 -1.613
-3.073 -3.172 -1.606
-3.075 -3.193 -1.612
-3.077 -3.215 -1.619
-3.054 -3.201 -1.608
-3.051 -3.219 -1.613
-3.041 -3.228 -1.613
-3.042 -3.25 -1.619
-3.022 -3.249 -1.614
-3.008 -3.254 -1.611
-2.997 -3.252 -1.608
-2.991 -3.267 -1.611
-2.974 -3.268 -1.606
-2.967 -3.281 -1.608
-2.957 -3.291 -1.608
-2.949 -3.303 -1.61
-2.929 -3.301 -1.604
-2.932 -3.315 -1.609
-2.913 -3.315 -1.604
-2.9 -3.321 -1.603
-2.892 -3.333 -1.604
-2.894 -3.356 -1.611
-2.871 -3.351 -1.604
-2.817 -3.309 -1.578
-2.813 -3.325 -1.582
-2.817 -3.34 -1.587
-2.821 -3.367 -1.596
-2.783 -3.342 -1.579
-2.766 -3.342 -1.575
-2.759 -3.355 -1.577
-2.75 -3.367 -1.579
-2.383 -3.589 -1.563
-2.333 -3.562 -1.544
-2.333 -3.587 -1.552
-2.332 -3.598 -1.555
-2.295 -3.565 -1.536
-2.248 -3.515 -1.51
-2.259 -3.557 -1.526
-2.245 -3.559 -1.524
-2.236 -3.571 -1.526
-2.224 -3.576 -1.526
-2.218 -3.58 -1.526
-2.195 -3.566 -1.516
-2.193 -3.589 -1.523
-2.195 -3.618 -1.534
-2.178 -3.615 -1.529
-2.163 -3.616 -1.526
-2.145 -3.611 -1.521
-2.115 -3.573 -1.502
-2.107 -3.586 -1.505
-2.096 -3.593 -1.505
-2.071 -3.575 -1.494
-2.059 -3.58 -1.494
-2.054 -3.598 -1.499
-2.046 -3.611 -1.502
-2.055 -3.64 -1.513
-2.027 -3.617 -1.5
-2.021 -3.633 -1.504
-2.022 -3.662 -1.515
-2.005 -3.657 -1.51
-1.988 -3.654 -1.505
-1.976 -3.66 -1.505
-1.992 -3.704 -1.523
-1.962 -3.674 -1.507
-1.905 -3.594 -1.47
-1.892 -3.595 -1.467
-1.873 -3.586 -1.461
-1.902 -3.672 -1.496
-1.92 -3.736 -1.521
-1.87 -3.665 -1.488
-1.873 -3.687 -1.496
-1.887 -3.744 -1.518
-1.87 -3.74 -1.514
-1.861 -3.751 -1.516
-1.808 -3.671 -1.479
-1.808 -3.702 -1.49
-1.8 -3.715 -1.493
-1.767 -3.66 -1.468
-1.734 -3.62 -1.448
-1.725 -3.631 -1.451
-1.682 -3.568 -1.422
-1.672 -3.575 -1.422
-1.657 -3.574 -1.419
-1.603 -3.484 -1.379
-1.662 -3.629 -1.44
-1.61 -3.544 -1.401
-1.589 -3.527 -1.392
-1.594 -3.568 -1.407
-1.603 -3.619 -1.427
-1.622 -3.694 -1.456
-1.564 -3.591 -1.411
-1.591 -3.669 -1.443
-1.564 -3.64 -1.428
-1.549 -3.634 -1.424
-1.546 -3.66 -1.432
-1.546 -3.692 -1.444
-1.548 -3.732 -1.459
-1.546 -3.761 -1.469
-1.555 -3.799 -1.484
-1.434 -3.531 -1.369
-1.445 -3.593 -1.393
-1.452 -3.642 -1.412
-1.374 -3.476 -1.341
-1.359 -3.47 -1.337
-1.438 -3.71 -1.435
-1.417 -3.672 -1.418
-1.467 -3.84 -1.486
-1.431 -3.782 -1.46
-1.421 -3.792 -1.462
-1.431 -3.856 -1.487
-1.425 -3.876 -1.494
-1.401 -3.849 -1.48
-1.304 -3.595 -1.374
-1.266 -3.523 -1.343
-1.244 -3.495 -1.33
-1.232 -3.496 -1.329
-1.256 -3.602 -1.371
-1.363 -3.955 -1.515
-1.351 -3.963 -1.516
-1.328 -3.912 -1.494
-1.334 -3.973 -1.518
-1.295 -3.898 -1.485
-1.289 -3.921 -1.493
-1.295 -3.98 -1.515
-1.265 -3.931 -1.494
-1.27 -3.99 -1.516
-1.251 -3.951 -1.499
-1.23 -3.925 -1.487
-1.216 -3.923 -1.485
-1.2 -3.914 -1.48
-1.181 -3.897 -1.471
-1.161 -3.874 -1.46
-1.154 -3.897 -1.468
-1.159 -3.938 -1.484
-1.134 -3.895 -1.465
-1.119 -3.888 -1.461
-1.089 -3.83 -1.436
-1.108 -3.947 -1.482
-1.107 -3.992 -1.499
-1.099 -4.012 -1.505
-1.065 -3.932 -1.472
-1.054 -3.918 -1.465
-1.037 -3.903 -1.458
-1.021 -3.89 -1.451
-1.032 -3.985 -1.488
-0.988 -3.864 -1.438
-0.991 -3.928 -1.463
-0.886 -3.547 -1.309
-0.975 -3.944 -1.467
-0.971 -3.981 -1.481
-0.947 -3.933 -1.461
-0.944 -3.98 -1.478
-0.916 -3.912 -1.45
-0.901 -3.904 -1.446
-0.893 -3.929 -1.454
-0.898 -3.977 -1.473
-0.863 -3.876 -1.432
-0.858 -3.914 -1.446
-0.849 -3.933 -1.452
-0.838 -3.943 -1.455
-0.824 -3.934 -1.451
-0.807 -3.917 -1.443
-0.794 -3.881 -1.428
-0.793 -3.944 -1.452
-0.786 -3.971 -1.462
-0.774 -3.979 -1.464
-0.763 -3.986 -1.466
-0.747 -3.974 -1.46
-0.735 -3.975 -1.459
-0.726 -3.965 -1.455
-0.715 -3.971 -1.456
-0.71 -4.017 -1.474
-0.69 -3.977 -1.457
-0.675 -3.966 -1.452
-0.66 -3.952 -1.446
-0.647 -3.95 -1.444
-0.64 -3.942 -1.44
-0.628 -3.948 -1.442
-0.588 -3.767 -1.37
-0.547 -3.568 -1.291
-0.531 -3.535 -1.277
-0.526 -3.584 -1.296
-0.515 -3.584 -1.295
-0.526 -3.707 -1.343
-0.509 -3.673 -1.329
-0.471 -3.47 -1.249
-0.459 -3.456 -1.243
-0.451 -3.486 -1.254
-0.445 -3.528 -1.27
-0.438 -3.562 -1.283
-0.428 -3.524 -1.267
-0.425 -3.601 -1.297
-0.412 -3.584 -1.29
-0.412 -3.691 -1.331
-0.394 -3.633 -1.308
-0.404 -3.855 -1.395
-0.379 -3.721 -1.342
-0.361 -3.646 -1.312
-0.354 -3.639 -1.309
-0.352 -3.74 -1.348
-0.357 -3.944 -1.427
-0.347 -3.975 -1.439
-0.331 -3.939 -1.424
-0.318 -3.93 -1.421
-0.31 -3.905 -1.411
-0.293 -3.831 -1.382
-0.277 -3.773 -1.358
-0.276 -3.952 -1.428
-0.248 -3.689 -1.325
-0.237 -3.697 -1.328
-0.221 -3.622 -1.298
-0.22 -3.706 -1.331
-0.211 -3.773 -1.357
-0.209 -3.986 -1.44
-0.196 -3.966 -1.432
-0.182 -3.919 -1.413
-0.17 -3.949 -1.424
-0.158 -3.946 -1.423
-0.145 -3.941 -1.421
-0.139 -3.954 -1.426
-0.127 -3.973 -1.433
-0.115 -3.969 -1.432
-0.102 -3.972 -1.432
-0.09 -3.966 -1.43
-0.078 -4.002 -1.444
-0.065 -3.963 -1.429
-0.059 -3.982 -1.436
-0.046 -3.962 -1.428
-0.034 -3.964 -1.429
-0.021 -3.964 -1.429
-0.009 -3.979 -1.435
0.004 -3.992 -1.44
0.01 -4.003 -1.444
0.023 -4.001 -1.443
0.035 -3.995 -1.441
0.048 -3.995 -1.441
0.06 -3.96 -1.427
0.072 -3.97 -1.432
0.086 -4 -1.443
0.098 -3.996 -1.442
0.104 -3.998 -1.443
0.116 -3.984 -1.438
0.129 -3.977 -1.435
0.141 -3.98 -1.436
0.152 -3.95 -1.424
0.164 -3.942 -1.422
0.178 -3.954 -1.427
0.181 -3.904 -1.407
0.192 -3.873 -1.395
0.209 -3.966 -1.432
0.218 -3.907 -1.409
0.233 -3.948 -1.425
0.243 -3.91 -1.411
0.259 -3.965 -1.432
0.266 -3.973 -1.436
0.276 -3.943 -1.424
0.293 -3.992 -1.444
0.303 -3.967 -1.435
0.309 -3.886 -1.403
0.324 -3.919 -1.416
0.339 -3.944 -1.427
0.342 -3.913 -1.415
0.36 -3.972 -1.438
0.373 -3.976 -1.44
0.385 -3.969 -1.438
0.4 -3.99 -1.447
0.417 -4.03 -1.463
0.43 -4.03 -1.464
0.43 -3.97 -1.44
0.446 -4.004 -1.454
0.459 -4.008 -1.456
0.466 -3.955 -1.436
0.473 -3.915 -1.421
0.488 -3.937 -1.43
0.493 -3.877 -1.407
0.507 -3.939 -1.432
0.515 -3.904 -1.419
0.534 -3.945 -1.435
0.551 -3.98 -1.45
0.573 -4.039 -1.474
0.582 -4.013 -1.464
0.598 -4.037 -1.475
0.576 -3.854 -1.403
0.518 -3.412 -1.229
0.543 -3.495 -1.262
0.63 -3.953 -1.444
0.618 -3.809 -1.388
0.601 -3.639 -1.321
0.645 -3.818 -1.393
0.668 -3.915 -1.432
0.752 -3.89 -1.428
0.783 -3.95 -1.454
0.754 -3.747 -1.374
0.78 -3.81 -1.4
0.797 -3.831 -1.409
0.799 -3.785 -1.392
0.764 -3.57 -1.307
2.346 -3.478 -1.519
2.365 -3.482 -1.525
2.352 -3.44 -1.508
2.343 -3.416 -1.499
2.342 -3.392 -1.491
2.347 -3.377 -1.487
2.367 -3.382 -1.493
2.379 -3.377 -1.494
2.399 -3.382 -1.5
2.413 -3.379 -1.502
2.42 -3.378 -1.504
2.454 -3.402 -1.519
2.466 -3.396 -1.52
2.464 -3.372 -1.512
2.472 -3.361 -1.51
2.492 -3.365 -1.516
2.496 -3.348 -1.512
2.509 -3.343 -1.513
2.517 -3.344 -1.515
2.534 -3.345 -1.52
2.548 -3.341 -1.522
2.559 -3.333 -1.522
2.561 -3.315 -1.517
2.58 -3.317 -1.522
2.584 -3.312 -1.521
2.594 -3.303 -1.521
2.596 -3.285 -1.516
2.611 -3.283 -1.519
2.616 -3.267 -1.515
2.627 -3.26 -1.516
2.645 -3.261 -1.52
2.639 -3.244 -1.514
2.661 -3.25 -1.521
2.664 -3.233 -1.517
2.675 -3.226 -1.518
2.69 -3.223 -1.52
2.693 -3.206 -1.516
2.703 -3.198 -1.516
2.708 -3.193 -1.516
2.721 -3.188 -1.518
2.725 -3.172 -1.514
2.738 -3.168 -1.516
2.742 -3.152 -1.512
2.761 -3.153 -1.518
2.771 -3.145 -1.518
2.783 -3.139 -1.519
2.788 -3.134 -1.519
2.795 -3.123 -1.518
2.799 -3.107 -1.514
2.817 -3.108 -1.519
2.826 -3.098 -1.518
2.839 -3.093 -1.52
2.838 -3.072 -1.514
2.849 -3.074 -1.518
2.855 -3.061 -1.515
2.871 -3.059 -1.519
2.884 -3.054 -1.521
2.895 -3.046 -1.522
2.903 -3.036 -1.521
2.905 -3.018 -1.517
2.915 -3.019 -1.52
2.931 -3.017 -1.523
2.922 -2.989 -1.513
2.951 -2.999 -1.524
2.952 -2.982 -1.52
2.957 -2.968 -1.517
2.964 -2.966 -1.518
2.98 -2.963 -1.522
2.99 -2.955 -1.523
2.993 -2.939 -1.519
3.01 -2.937 -1.523
3.011 -2.92 -1.519
3.029 -2.918 -1.523
3.036 -2.908 -1.523
3.029 -2.891 -1.516
3.06 -2.902 -1.528
3.061 -2.885 -1.523
3.066 -2.871 -1.521
3.077 -2.864 -1.523
3.089 -2.857 -1.524
3.094 -2.844 -1.522
3.098 -2.839 -1.522
3.107 -2.829 -1.522
3.12 -2.823 -1.524
3.128 -2.812 -1.523
3.132 -2.798 -1.521
3.147 -2.793 -1.524
3.16 -2.787 -1.526
3.16 -2.779 -1.524
3.166 -2.766 -1.523
3.19 -2.77 -1.531
3.209 -2.768 -1.536
3.192 -2.736 -1.523
3.222 -2.744 -1.534
3.222 -2.727 -1.529
3.214 -2.712 -1.523
3.25 -2.725 -1.537
3.237 -2.697 -1.526
3.244 -2.685 -1.526
3.248 -2.672 -1.523
3.274 -2.676 -1.532
3.281 -2.664 -1.531
3.276 -2.652 -1.527
3.286 -2.643 -1.528
3.296 -2.634 -1.528
3.326 -2.64 -1.539
3.31 -2.611 -1.527
3.315 -2.598 -1.526
3.335 -2.597 -1.531
3.324 -2.58 -1.524
3.338 -2.574 -1.527
3.359 -2.574 -1.534
3.366 -2.562 -1.533
3.374 -2.551 -1.533
3.388 -2.545 -1.536
3.399 -2.537 -1.537
3.396 -2.526 -1.534
3.411 -2.521 -1.537
3.404 -2.499 -1.53
3.415 -2.491 -1.531
3.432 -2.486 -1.536
3.445 -2.48 -1.539
3.438 -2.458 -1.531
3.454 -2.461 -1.537
3.451 -2.443 -1.532
3.456 -2.43 -1.531
3.477 -2.429 -1.537
3.465 -2.404 -1.528
3.477 -2.396 -1.53
3.504 -2.399 -1.539
3.487 -2.379 -1.529
3.508 -2.377 -1.536
3.501 -2.357 -1.529
3.518 -2.352 -1.534
3.536 -2.348 -1.539
3.553 -2.343 -1.543
3.556 -2.329 -1.541
3.549 -2.316 -1.536
3.567 -2.312 -1.541
3.582 -2.306 -1.544
3.581 -2.29 -1.541
3.587 -2.277 -1.54
3.602 -2.271 -1.544
3.606 -2.258 -1.542
3.62 -2.259 -1.547
3.618 -2.242 -1.543
3.628 -2.232 -1.544
3.632 -2.219 -1.543
3.647 -2.212 -1.547
3.654 -2.201 -1.547
3.669 -2.194 -1.55
3.655 -2.178 -1.542
3.671 -2.172 -1.547
3.675 -2.159 -1.545
3.68 -2.146 -1.544
3.691 -2.137 -1.547
3.696 -2.125 -1.546
3.576 -2.042 -1.489
3.29 -1.874 -1.36
3.226 -1.825 -1.329
3.152 -1.771 -1.293
3.192 -1.78 -1.308
3.31 -1.831 -1.358
3.382 -1.856 -1.387
3.343 -1.822 -1.368
3.662 -1.985 -1.507
3.694 -1.987 -1.519
3.582 -1.913 -1.467
3.119 -1.657 -1.26
3.137 -1.654 -1.266
3.263 -1.706 -1.319
3.232 -1.678 -1.303
3.412 -1.756 -1.379
3.348 -1.717 -1.35
3.427 -1.743 -1.382
3.569 -1.8 -1.442
3.621 -1.812 -1.462
3.47 -1.724 -1.394
3.418 -1.685 -1.369
3.204 -1.575 -1.275
3.285 -1.601 -1.308
3.197 -1.547 -1.268
3.297 -1.582 -1.309
3.237 -1.541 -1.281
3.377 -1.594 -1.339
3.667 -1.714 -1.462
3.74 -1.733 -1.491
3.826 -1.765 -1.526
3.893 -1.781 -1.552
3.762 -1.708 -1.494
3.679 -1.657 -1.456
3.721 -1.661 -1.472
3.78 -1.673 -1.495
3.804 -1.669 -1.503
3.818 -1.668 -1.508
3.76 -1.629 -1.481
3.793 -1.629 -1.493
3.782 -1.611 -1.486
3.77 -1.592 -1.479
3.656 -1.531 -1.429
3.561 -1.479 -1.387
3.411 -1.411 -1.323
3.933 -1.608 -1.54
3.917 -1.588 -1.531
3.979 -1.598 -1.555
4.026 -1.602 -1.573
4.038 -1.592 -1.576
4.025 -1.572 -1.568
3.984 -1.549 -1.55
4.02 -1.549 -1.563
4.069 -1.553 -1.582
4.072 -1.539 -1.581
4.075 -1.526 -1.58
4.04 -1.498 -1.563
4.03 -1.48 -1.558
4.18 -1.527 -1.619
4.25 -1.537 -1.646
4.281 -1.533 -1.656
4.319 -1.531 -1.67
4.378 -1.536 -1.693
4.422 -1.536 -1.709
4.424 -1.529 -1.709
4.44 -1.518 -1.713
4.432 -1.5 -1.708
4.455 -1.492 -1.715
4.47 -1.482 -1.72
4.455 -1.461 -1.712
4.444 -1.442 -1.705
4.459 -1.432 -1.71
4.464 -1.426 -1.711
4.446 -1.405 -1.702
4.468 -1.396 -1.709
4.455 -1.377 -1.702
4.461 -1.363 -1.702
4.463 -1.349 -1.702
4.467 -1.335 -1.702
4.471 -1.328 -1.702
4.481 -1.316 -1.704
4.463 -1.295 -1.696
4.467 -1.281 -1.696
4.484 -1.271 -1.701
4.481 -1.255 -1.698
4.476 -1.238 -1.694
4.479 -1.232 -1.695
4.476 -1.216 -1.692
4.471 -1.199 -1.688
4.478 -1.186 -1.69
4.491 -1.174 -1.694
4.5 -1.162 -1.696
4.507 -1.148 -1.697
4.509 -1.141 -1.697
4.493 -1.122 -1.689
4.514 -1.112 -1.696
4.498 -1.094 -1.688
4.512 -1.082 -1.693
4.516 -1.068 -1.693
4.517 -1.053 -1.692
4.517 -1.046 -1.691
4.531 -1.034 -1.696
4.531 -1.019 -1.694
4.517 -1.001 -1.688
4.521 -0.987 -1.688
4.522 -0.972 -1.687
4.536 -0.96 -1.691
4.554 -0.957 -1.698
4.533 -0.937 -1.688
4.53 -0.922 -1.686
4.553 -0.912 -1.694
4.554 -0.897 -1.694
4.557 -0.883 -1.694
4.547 -0.866 -1.688
4.546 -0.851 -1.687
4.546 -0.844 -1.686
4.567 -0.833 -1.694
4.547 -0.815 -1.685
4.553 -0.801 -1.686
4.558 -0.787 -1.687
4.549 -0.771 -1.683
4.555 -0.757 -1.684
4.58 -0.754 -1.694
4.579 -0.739 -1.692
4.572 -0.723 -1.688
4.552 -0.705 -1.68
4.582 -0.695 -1.691
4.568 -0.678 -1.684
4.59 -0.667 -1.692
4.58 -0.658 -1.688
4.575 -0.643 -1.685
4.577 -0.628 -1.685
4.577 -0.614 -1.684
4.568 -0.598 -1.68
4.58 -0.585 -1.684
4.582 -0.57 -1.684
4.574 -0.562 -1.68
4.574 -0.548 -1.68
4.577 -0.533 -1.68
4.577 -0.519 -1.68
4.588 -0.505 -1.683
4.577 -0.49 -1.678
4.578 -0.475 -1.678
4.599 -0.47 -1.686
4.59 -0.455 -1.682
4.591 -0.44 -1.682
4.589 -0.425 -1.68
4.586 -0.411 -1.679
4.591 -0.397 -1.68
4.583 -0.389 -1.677
4.601 -0.375 -1.683
4.596 -0.361 -1.681
4.605 -0.347 -1.684
4.574 -0.33 -1.672
4.599 -0.317 -1.681
4.597 -0.303 -1.68
4.594 -0.288 -1.678
4.577 -0.28 -1.672
4.595 -0.266 -1.678
4.59 -0.252 -1.676
4.595 -0.237 -1.678
4.586 -0.222 -1.674
4.583 -0.208 -1.672
4.586 -0.194 -1.673
4.606 -0.187 -1.681
4.588 -0.172 -1.674
4.596 -0.158 -1.677
4.593 -0.143 -1.675
4.584 -0.129 -1.672
4.583 -0.114 -1.671
4.598 -0.1 -1.677
4.6 -0.093 -1.678
4.597 -0.078 -1.676
4.606 -0.064 -1.68
4.589 -0.049 -1.673
4.595 -0.035 -1.675
4.599 -0.021 -1.677
4.595 -0.006 -1.675
4.383 0.801 -1.677
4.384 0.815 -1.678
4.387 0.83 -1.68
4.397 0.846 -1.686
4.391 0.859 -1.684
4.375 0.871 -1.679
4.378 0.885 -1.681
4.371 0.891 -1.679
4.374 0.906 -1.681
4.373 0.92 -1.682
4.366 0.933 -1.68
4.358 0.946 -1.678
4.355 0.959 -1.678
4.355 0.974 -1.68
4.348 0.98 -1.677
4.354 0.995 -1.681
4.337 1.006 -1.675
4.326 1.018 -1.672
4.345 1.036 -1.681
4.325 1.046 -1.674
4.327 1.061 -1.677
4.328 1.068 -1.677
4.324 1.082 -1.677
4.321 1.095 -1.677
4.326 1.111 -1.681
4.317 1.123 -1.679
4.312 1.136 -1.678
4.321 1.153 -1.683
4.307 1.157 -1.678
4.308 1.172 -1.68
4.31 1.187 -1.683
4.299 1.198 -1.68
4.297 1.212 -1.68
4.293 1.226 -1.68
4.284 1.238 -1.678
4.284 1.245 -1.679
4.285 1.26 -1.681
4.28 1.273 -1.68
4.277 1.287 -1.681
4.273 1.3 -1.681
4.266 1.313 -1.68
4.261 1.326 -1.68
4.27 1.336 -1.684
4.262 1.348 -1.683
4.244 1.357 -1.677
4.261 1.377 -1.686
4.242 1.386 -1.68
4.247 1.402 -1.683
4.241 1.415 -1.683
4.235 1.421 -1.681
4.239 1.437 -1.685
4.243 1.453 -1.689
4.227 1.462 -1.683
4.22 1.475 -1.683
4.221 1.49 -1.685
4.225 1.506 -1.689
4.199 1.512 -1.68
4.195 1.518 -1.679
4.194 1.532 -1.68
4.191 1.546 -1.681
4.194 1.563 -1.685
4.171 1.584 -1.679
4.176 1.601 -1.683
4.156 1.601 -1.676
4.167 1.62 -1.683
4.16 1.632 -1.682
4.139 1.639 -1.675
4.137 1.654 -1.677
4.143 1.671 -1.681
4.138 1.676 -1.68
4.121 1.685 -1.675
4.131 1.704 -1.682
4.114 1.712 -1.677
4.113 1.727 -1.679
4.113 1.742 -1.681
4.097 1.751 -1.677
4.09 1.763 -1.676
4.103 1.776 -1.683
4.087 1.784 -1.678
4.083 1.798 -1.679
4.079 1.811 -1.68
4.072 1.823 -1.679
4.066 1.836 -1.679
4.067 1.852 -1.682
4.052 1.853 -1.677
4.056 1.87 -1.681
4.05 1.883 -1.681
4.043 1.895 -1.68
4.03 1.905 -1.677
4.034 1.922 -1.682
4.026 1.934 -1.681
4.018 1.938 -1.679
4.012 1.95 -1.679
4.008 1.964 -1.68
3.997 1.974 -1.677
3.997 1.99 -1.68
3.986 2 -1.678
3.983 2.014 -1.68
3.976 2.019 -1.678
3.977 2.034 -1.681
3.968 2.046 -1.68
3.959 2.057 -1.679
3.96 2.073 -1.683
3.946 2.082 -1.679
3.933 2.091 -1.676
3.942 2.104 -1.682
3.928 2.112 -1.678
3.918 2.122 -1.677
3.913 2.135 -1.677
3.912 2.151 -1.68
3.898 2.159 -1.677
3.897 2.175 -1.68
3.897 2.183 -1.681
3.879 2.189 -1.676
3.89 2.211 -1.684
3.873 2.218 -1.68
3.864 2.229 -1.679
3.859 2.242 -1.68
3.85 2.253 -1.679
3.848 2.26 -1.68
3.835 2.268 -1.677
3.836 2.285 -1.68
3.824 2.294 -1.678
3.812 2.303 -1.676
3.817 2.323 -1.682
3.8 2.329 -1.677
3.803 2.339 -1.68
3.802 2.355 -1.683
3.787 2.362 -1.68
3.782 2.376 -1.681
3.777 2.389 -1.682
3.76 2.395 -1.677
3.765 2.414 -1.683
3.752 2.423 -1.681
3.752 2.431 -1.683
3.747 2.445 -1.684
3.733 2.453 -1.681
3.732 2.468 -1.684
3.719 2.477 -1.682
3.708 2.487 -1.68
3.711 2.505 -1.686
3.703 2.508 -1.683
3.698 2.522 -1.685
3.688 2.532 -1.684
3.684 2.546 -1.686
3.682 2.562 -1.689
3.661 2.565 -1.683
3.658 2.58 -1.685
3.652 2.584 -1.684
3.656 2.604 -1.69
3.639 2.609 -1.686
3.635 2.624 -1.688
3.63 2.638 -1.689
3.62 2.648 -1.689
3.621 2.666 -1.693
3.603 2.662 -1.686
3.599 2.676 -1.689
3.588 2.685 -1.687
3.588 2.703 -1.692
3.578 2.713 -1.691
3.571 2.726 -1.692
3.561 2.736 -1.691
3.551 2.737 -1.688
3.548 2.753 -1.691
3.538 2.763 -1.69
3.538 2.781 -1.695
3.516 2.781 -1.688
3.513 2.797 -1.691
3.512 2.814 -1.695
3.497 2.811 -1.689
3.499 2.83 -1.695
3.478 2.832 -1.689
3.474 2.846 -1.691
3.468 2.86 -1.692
3.46 2.872 -1.693
3.449 2.881 -1.692
3.442 2.893 -1.693
3.432 2.894 -1.69
3.422 2.905 -1.69
3.426 2.926 -1.697
3.404 2.926 -1.69
3.403 2.944 -1.695
3.397 2.957 -1.696
3.379 2.961 -1.692
3.375 2.966 -1.692
3.372 2.983 -1.695
3.356 2.987 -1.692
3.345 2.996 -1.691
3.347 3.017 -1.697
3.334 3.025 -1.695
3.321 3.031 -1.693
3.319 3.039 -1.695
3.309 3.05 -1.695
3.294 3.055 -1.692
3.29 3.07 -1.695
3.276 3.077 -1.692
3.268 3.088 -1.693
3.27 3.11 -1.7
3.257 3.108 -1.695
3.244 3.114 -1.693
3.243 3.133 -1.698
3.223 3.133 -1.692
3.209 3.139 -1.69
3.214 3.164 -1.698
3.192 3.162 -1.692
3.187 3.167 -1.692
3.185 3.185 -1.696
3.165 3.186 -1.691
3.166 3.206 -1.697
3.156 3.216 -1.697
3.139 3.219 -1.693
3.124 3.224 -1.69
3.128 3.238 -1.695
3.119 3.249 -1.696
3.104 3.254 -1.693
3.098 3.269 -1.696
3.084 3.274 -1.694
3.074 3.284 -1.694
3.066 3.296 -1.695
3.056 3.296 -1.692
3.052 3.312 -1.696
3.038 3.318 -1.694
3.027 3.327 -1.694
3.018 3.338 -1.695
3.011 3.352 -1.697
2.995 3.354 -1.693
2.988 3.368 -1.695
2.982 3.372 -1.695
2.969 3.379 -1.694
2.966 3.397 -1.698
2.946 3.395 -1.692
2.939 3.408 -1.695
2.933 3.423 -1.698
2.921 3.431 -1.697
2.912 3.431 -1.695
2.903 3.443 -1.696
2.896 3.456 -1.698
2.883 3.463 -1.697
2.872 3.472 -1.697
2.866 3.486 -1.7
2.852 3.493 -1.698
2.846 3.496 -1.698
2.836 3.506 -1.698
2.82 3.509 -1.695
2.809 3.518 -1.695
2.807 3.538 -1.701
2.792 3.541 -1.698
2.776 3.544 -1.695
2.776 3.556 -1.699
2.767 3.568 -1.701
2.749 3.567 -1.696
2.744 3.583 -1.7
2.735 3.595 -1.701
2.721 3.601 -1.7
2.709 3.608 -1.699
2.71 3.621 -1.704
2.698 3.629 -1.704
2.685 3.635 -1.702
2.674 3.645 -1.703
2.657 3.646 -1.699
2.648 3.657 -1.701
2.632 3.659 -1.698
2.63 3.668 -1.7
2.621 3.681 -1.702
2.613 3.693 -1.704
2.597 3.695 -1.701
2.587 3.705 -1.702
2.573 3.71 -1.701
2.561 3.718 -1.701
2.552 3.729 -1.702
2.546 3.733 -1.702
2.535 3.743 -1.703
2.524 3.752 -1.704
2.51 3.757 -1.702
2.496 3.76 -1.7
2.492 3.781 -1.706
2.477 3.784 -1.704
2.468 3.783 -1.701
2.459 3.795 -1.704
2.447 3.803 -1.704
2.439 3.817 -1.707
2.424 3.82 -1.704
2.416 3.834 -1.707
2.4 3.835 -1.704
2.398 3.845 -1.707
2.385 3.851 -1.707
2.371 3.855 -1.705
2.358 3.861 -1.704
2.345 3.867 -1.704
2.336 3.879 -1.706
2.327 3.893 -1.709
2.322 3.898 -1.71
2.308 3.902 -1.708
2.294 3.906 -1.707
2.281 3.913 -1.707
2.268 3.919 -1.706
2.254 3.923 -1.704
2.249 3.943 -1.71
2.238 3.951 -1.711
2.23 3.952 -1.71
2.216 3.957 -1.709
2.204 3.964 -1.709
2.194 3.976 -1.711
2.181 3.981 -1.71
2.173 3.996 -1.714
2.156 3.996 -1.711
2.152 4.003 -1.713
2.139 4.01 -1.713
2.121 4.005 -1.707
2.115 4.025 -1.713
2.101 4.03 -1.713
2.087 4.033 -1.711
2.076 4.043 -1.713
2.07 4.046 -1.713
2.058 4.054 -1.713
2.046 4.062 -1.714
2.03 4.062 -1.711
2.025 4.083 -1.718
2.014 4.095 -1.72
2.009 4.116 -1.727
1.998 4.111 -1.723
1.986 4.119 -1.724
1.971 4.12 -1.722
1.955 4.121 -1.719
1.945 4.132 -1.722
1.924 4.121 -1.714
1.916 4.138 -1.719
1.902 4.142 -1.718
1.9 4.155 -1.722
1.884 4.154 -1.719
1.875 4.168 -1.723
1.853 4.156 -1.715
1.848 4.18 -1.723
1.829 4.172 -1.717
1.821 4.19 -1.722
1.815 4.195 -1.723
1.8 4.195 -1.721
1.786 4.199 -1.72
1.778 4.217 -1.725
1.76 4.212 -1.721
1.749 4.223 -1.723
1.739 4.235 -1.726
1.73 4.232 -1.724
1.718 4.241 -1.725
1.708 4.255 -1.729
1.686 4.238 -1.719
1.68 4.263 -1.728
1.663 4.259 -1.724
1.649 4.261 -1.722
1.639 4.257 -1.719
1.631 4.276 -1.725
1.614 4.27 -1.721
1.6 4.274 -1.72
1.592 4.294 -1.727
1.574 4.285 -1.721
1.563 4.297 -1.724
1.558 4.305 -1.726
1.54 4.297 -1.721
1.528 4.308 -1.723
1.52 4.326 -1.729
1.501 4.317 -1.723
1.489 4.327 -1.725
1.478 4.339 -1.728
1.462 4.336 -1.725
1.458 4.346 -1.728
1.444 4.35 -1.728
1.428 4.348 -1.725
1.416 4.357 -1.728
1.404 4.367 -1.73
1.389 4.366 -1.728
1.375 4.371 -1.728
1.371 4.382 -1.731
1.357 4.384 -1.73
1.339 4.376 -1.725
1.33 4.394 -1.731
1.311 4.382 -1.725
1.299 4.394 -1.728
1.289 4.41 -1.733
1.279 4.4 -1.728
1.266 4.409 -1.73
1.255 4.422 -1.733
1.237 4.412 -1.728
1.223 4.415 -1.728
1.208 4.414 -1.725
1.195 4.423 -1.728
1.182 4.429 -1.728
1.179 4.445 -1.734
1.161 4.432 -1.728
1.148 4.441 -1.73
1.137 4.456 -1.734
1.12 4.447 -1.729
1.106 4.45 -1.729
1.095 4.468 -1.735
1.086 4.459 -1.73
1.073 4.469 -1.733
1.06 4.475 -1.734
1.047 4.482 -1.736
1.027 4.46 -1.725
1.016 4.475 -1.73
0.997 4.459 -1.722
0.987 4.449 -1.718
0.975 4.46 -1.721
0.96 4.459 -1.719
0.946 4.46 -1.719
0.938 4.492 -1.73
0.917 4.461 -1.716
0.902 4.462 -1.716
0.896 4.467 -1.717
0.88 4.459 -1.713
0.865 4.458 -1.711
0.851 4.462 -1.712
0.834 4.447 -1.704
0.822 4.458 -1.708
0.809 4.466 -1.71
0.799 4.453 -1.704
0.785 4.454 -1.704
0.771 4.46 -1.705
0.748 4.407 -1.683
0.736 4.424 -1.689
0.721 4.421 -1.686
0.711 4.444 -1.695
0.697 4.444 -1.694
0.693 4.469 -1.704
0.674 4.44 -1.691
0.661 4.444 -1.692
0.649 4.459 -1.697
0.633 4.452 -1.693
0.618 4.441 -1.688
0.605 4.45 -1.691
0.596 4.438 -1.686
0.583 4.445 -1.688
0.568 4.444 -1.686
0.554 4.44 -1.684
0.54 4.443 -1.685
0.527 4.451 -1.687
0.51 4.428 -1.677
0.504 4.44 -1.682
0.491 4.445 -1.683
0.475 4.43 -1.677
0.461 4.432 -1.677
0.448 4.441 -1.68
0.432 4.425 -1.673
0.419 4.432 -1.675
0.405 4.433 -1.675
0.397 4.427 -1.672
0.384 4.433 -1.674
0.37 4.438 -1.676
0.356 4.439 -1.676
0.341 4.433 -1.673
0.327 4.429 -1.671
0.313 4.428 -1.67
0.306 4.428 -1.67
0.292 4.427 -1.669
0.278 4.426 -1.668
0.265 4.435 -1.671
0.25 4.424 -1.667
0.236 4.423 -1.666
0.222 4.428 -1.668
0.215 4.423 -1.665
0.201 4.421 -1.665
0.187 4.418 -1.663
0.173 4.423 -1.665
0.159 4.425 -1.665
0.145 4.416 -1.662
0.131 4.42 -1.663
0.124 4.415 -1.661
0.111 4.421 -1.663
0.097 4.419 -1.663
0.083 4.42 -1.663
0.069 4.416 -1.661
0.055 4.416 -1.661
0.041 4.422 -1.663
0.027 4.411 -1.659
0.02 4.407 -1.657
0.006 4.415 -1.66
-0.008 4.407 -1.657
-0.021 4.405 -1.657
-0.035 4.407 -1.657
-0.049 4.4 -1.654
-0.063 4.407 -1.657
-0.07 4.409 -1.658
-0.084 4.405 -1.657
-0.097 4.399 -1.654
-0.111 4.408 -1.658
-0.125 4.404 -1.657
-0.139 4.4 -1.655
-0.153 4.403 -1.657
-0.16 4.401 -1.656
-0.173 4.389 -1.651
-0.187 4.398 -1.655
-0.201 4.386 -1.651
-0.215 4.395 -1.654
-0.228 4.39 -1.653
-0.242 4.393 -1.654
-0.249 4.385 -1.651
-0.263 4.398 -1.657
-0.277 4.389 -1.654
-0.291 4.39 -1.654
-0.305 4.391 -1.655
-0.318 4.39 -1.655
-0.332 4.393 -1.657
-0.346 4.394 -1.657
-0.353 4.391 -1.657
-0.367 4.386 -1.655
-0.381 4.391 -1.657
-0.394 4.384 -1.655
-0.408 4.387 -1.657
-0.422 4.387 -1.657
-0.436 4.382 -1.656
-0.443 4.383 -1.657
-0.457 4.384 -1.657
-0.471 4.39 -1.66
-0.485 4.384 -1.659
-0.499 4.39 -1.662
-0.513 4.385 -1.66
-0.526 4.381 -1.66
-0.533 4.384 -1.661
-0.546 4.373 -1.657
-0.561 4.379 -1.66
-0.575 4.377 -1.66
-0.588 4.374 -1.66
-0.603 4.377 -1.662
-0.616 4.373 -1.661
-0.624 4.382 -1.665
-0.638 4.382 -1.665
-0.65 4.368 -1.661
-0.665 4.376 -1.665
-0.68 4.381 -1.668
-0.693 4.369 -1.664
-0.707 4.369 -1.665
-0.721 4.374 -1.668
-0.727 4.366 -1.665
-0.742 4.367 -1.666
-0.757 4.374 -1.67
-0.768 4.359 -1.665
-0.783 4.362 -1.667
-0.798 4.368 -1.671
-0.812 4.364 -1.67
-0.818 4.357 -1.668
-0.833 4.364 -1.671
-0.845 4.352 -1.668
-0.86 4.355 -1.67
-0.876 4.367 -1.676
-0.888 4.353 -1.671
-0.902 4.352 -1.672
-0.91 4.356 -1.674
-0.923 4.35 -1.673
-0.936 4.345 -1.672
-0.953 4.356 -1.678
-0.964 4.344 -1.674
-0.977 4.336 -1.672
-0.994 4.349 -1.679
-0.999 4.338 -1.675
-1.014 4.344 -1.679
-1.031 4.356 -1.685
-1.043 4.341 -1.68
-1.056 4.336 -1.68
-1.072 4.342 -1.683
-1.084 4.335 -1.682
-1.096 4.324 -1.679
-1.11 4.351 -1.691
-1.12 4.332 -1.684
-1.133 4.328 -1.684
-1.149 4.334 -1.688
-1.162 4.326 -1.686
-1.174 4.317 -1.684
-1.192 4.332 -1.692
-1.196 4.319 -1.687
-1.211 4.321 -1.689
-1.227 4.326 -1.693
-1.241 4.324 -1.694
-1.255 4.318 -1.693
-1.271 4.325 -1.698
-1.284 4.319 -1.697
-1.291 4.315 -1.696
-1.306 4.318 -1.699
-1.321 4.317 -1.701
-1.335 4.317 -1.702
-1.349 4.313 -1.702
-1.364 4.312 -1.704
-1.378 4.309 -1.704
-1.386 4.311 -1.706
-1.399 4.305 -1.705
-1.415 4.309 -1.709
-1.428 4.305 -1.709
-1.443 4.304 -1.71
-1.458 4.304 -1.713
-1.47 4.294 -1.71
-1.488 4.302 -1.716
-1.495 4.3 -1.716
-1.507 4.291 -1.714
-1.525 4.299 -1.719
-1.539 4.298 -1.721
-1.553 4.293 -1.721
-1.568 4.291 -1.722
-1.582 4.288 -1.723
-1.59 4.291 -1.725
-1.606 4.291 -1.728
-1.62 4.29 -1.729
-1.633 4.283 -1.728
-1.651 4.288 -1.733
-1.667 4.291 -1.736
-1.679 4.281 -1.734
-1.688 4.285 -1.737
-1.702 4.282 -1.738
-1.712 4.266 -1.733
-1.731 4.274 -1.739
-1.749 4.281 -1.745
-1.762 4.275 -1.745
-1.778 4.275 -1.747
-1.791 4.268 -1.746
-1.799 4.27 -1.748
-1.815 4.269 -1.751
-1.836 4.283 -1.759
-1.846 4.268 -1.755
-1.861 4.266 -1.757
-1.878 4.268 -1.76
-1.891 4.261 -1.76
-1.909 4.283 -1.771
-1.918 4.269 -1.767
-1.936 4.271 -1.771
-1.944 4.255 -1.766
-1.967 4.269 -1.775
-1.974 4.249 -1.769
-2 4.27 -1.781
-2.006 4.247 -1.774
-2.022 4.264 -1.783
-2.033 4.253 -1.781
-2.052 4.26 -1.787
-2.057 4.235 -1.778
-2.073 4.233 -1.781
-2.079 4.212 -1.774
-2.109 4.24 -1.79
-2.108 4.222 -1.783
-2.127 4.227 -1.788
-2.147 4.233 -1.794
-2.159 4.223 -1.793
-2.167 4.207 -1.788
-2.188 4.215 -1.795
-2.192 4.19 -1.787
-2.206 4.201 -1.793
-2.217 4.191 -1.792
-2.229 4.181 -1.79
-2.242 4.173 -1.79
-2.259 4.175 -1.794
-2.269 4.161 -1.791
-2.285 4.159 -1.793
-2.3 4.155 -1.795
-2.306 4.151 -1.795
-2.316 4.139 -1.793
-2.336 4.143 -1.798
-2.34 4.12 -1.79
-2.36 4.125 -1.796
-2.377 4.124 -1.799
-2.387 4.112 -1.797
-2.39 4.103 -1.795
-2.409 4.105 -1.799
-2.419 4.093 -1.797
-2.433 4.087 -1.798
-2.449 4.086 -1.801
-2.456 4.068 -1.796
-2.469 4.061 -1.796
-2.48 4.065 -1.8
-2.494 4.058 -1.801
-2.505 4.047 -1.799
-2.524 4.051 -1.804
-2.522 4.019 -1.793
-2.548 4.031 -1.803
-2.561 4.023 -1.803
-2.558 4.005 -1.796
-2.571 3.999 -1.797
-2.589 3.999 -1.801
-2.596 3.981 -1.796
-2.612 3.979 -1.799
-2.628 3.976 -1.801
-2.634 3.958 -1.797
-2.655 3.962 -1.803
-2.661 3.958 -1.803
-2.67 3.945 -1.801
-2.684 3.938 -1.801
-2.718 3.962 -1.817
-2.726 3.947 -1.814
-2.724 3.917 -1.804
-2.753 3.933 -1.816
-2.76 3.93 -1.816
-3.294 3.488 -1.814
-3.302 3.475 -1.813
-3.302 3.464 -1.81
-3.32 3.46 -1.813
-3.329 3.448 -1.813
-3.344 3.442 -1.815
-3.344 3.421 -1.809
-3.364 3.42 -1.814
-3.371 3.405 -1.812
-3.383 3.396 -1.813
-3.393 3.396 -1.816
-3.401 3.382 -1.814
-3.408 3.368 -1.812
-3.432 3.37 -1.819
-3.432 3.349 -1.813
-3.445 3.341 -1.815
-3.462 3.336 -1.819
-3.459 3.323 -1.814
-3.474 3.316 -1.816
-3.483 3.304 -1.816
-3.493 3.293 -1.816
-3.505 3.283 -1.816
-3.518 3.275 -1.818
-3.524 3.26 -1.816
-3.527 3.252 -1.814
-3.539 3.243 -1.816
-3.556 3.238 -1.819
-3.561 3.222 -1.816
-3.573 3.212 -1.817
-3.581 3.2 -1.816
-3.591 3.188 -1.816
-3.61 3.185 -1.821
-3.601 3.167 -1.813
-3.618 3.161 -1.817
-3.637 3.159 -1.822
-3.646 3.146 -1.822
-3.649 3.128 -1.818
-3.668 3.125 -1.823
-3.658 3.097 -1.813
-3.679 3.104 -1.821
-3.687 3.092 -1.82
-3.69 3.074 -1.816
-3.699 3.063 -1.816
-3.722 3.062 -1.823
-3.723 3.043 -1.819
-3.732 3.031 -1.819
-3.749 3.035 -1.825
-3.745 3.012 -1.818
-3.76 3.005 -1.821
-3.778 3 -1.825
-3.776 2.979 -1.819
-3.794 2.974 -1.824
-3.802 2.961 -1.823
-3.806 2.945 -1.82
-3.812 2.94 -1.821
-3.822 2.929 -1.822
-3.833 2.918 -1.822
-3.835 2.9 -1.819
-3.853 2.895 -1.823
-3.854 2.877 -1.819
-3.878 2.876 -1.827
-3.878 2.867 -1.825
-3.883 2.851 -1.822
-3.893 2.84 -1.823
-3.904 2.829 -1.824
-3.905 2.811 -1.82
-3.93 2.811 -1.828
-3.936 2.796 -1.827
-3.935 2.786 -1.824
-3.945 2.775 -1.825
-3.964 2.77 -1.83
-3.962 2.75 -1.825
-3.977 2.742 -1.828
-3.979 2.725 -1.825
-3.997 2.719 -1.829
-3.995 2.699 -1.824
-4.008 2.699 -1.828
-4.012 2.683 -1.826
-4.022 2.671 -1.827
-4.029 2.658 -1.826
-4.037 2.645 -1.826
-4.049 2.634 -1.828
-4.063 2.626 -1.831
-4.058 2.613 -1.826
-4.08 2.61 -1.833
-4.079 2.591 -1.828
-4.084 2.576 -1.827
-4.097 2.566 -1.829
-4.1 2.55 -1.827
-4.114 2.541 -1.83
-4.117 2.534 -1.829
-4.125 2.521 -1.829
-4.131 2.507 -1.828
-4.144 2.497 -1.831
-4.144 2.479 -1.827
-4.161 2.472 -1.831
-4.162 2.455 -1.828
-4.171 2.451 -1.831
-4.177 2.437 -1.83
-4.194 2.43 -1.834
-4.197 2.414 -1.832
-4.203 2.399 -1.831
-4.217 2.39 -1.834
-4.215 2.371 -1.83
-4.218 2.365 -1.83
-4.234 2.356 -1.834
-4.235 2.339 -1.831
-4.247 2.328 -1.833
-4.259 2.318 -1.835
-4.257 2.299 -1.831
-4.274 2.291 -1.835
-4.28 2.286 -1.837
-4.294 2.276 -1.84
-4.3 2.262 -1.839
-4.297 2.243 -1.834
-4.315 2.235 -1.84
-4.322 2.222 -1.84
-4.324 2.206 -1.837
-4.353 2.203 -1.847
-4.341 2.189 -1.84
-4.348 2.175 -1.84
-4.365 2.166 -1.845
-4.347 2.14 -1.834
-4.379 2.139 -1.845
-4.038 -1.816 -1.665
-4.031 -1.828 -1.665
-4.027 -1.842 -1.665
-4.019 -1.853 -1.665
-4.005 -1.862 -1.661
-4.001 -1.876 -1.662
-3.99 -1.886 -1.66
-3.987 -1.892 -1.66
-3.972 -1.901 -1.656
-3.961 -1.911 -1.654
-3.959 -1.925 -1.655
-3.954 -1.938 -1.656
-3.947 -1.95 -1.655
-3.939 -1.961 -1.654
-3.936 -1.967 -1.654
-3.931 -1.98 -1.655
-3.917 -1.989 -1.651
-3.905 -1.998 -1.649
-3.904 -2.013 -1.651
-3.893 -2.023 -1.649
-3.89 -2.037 -1.651
-3.886 -2.043 -1.651
-3.877 -2.053 -1.649
-3.87 -2.066 -1.649
-3.867 -2.079 -1.651
-3.865 -2.094 -1.653
-3.847 -2.1 -1.648
-3.841 -2.112 -1.648
-3.829 -2.114 -1.644
-3.823 -2.126 -1.644
-3.822 -2.142 -1.647
-3.814 -2.153 -1.646
-3.804 -2.163 -1.645
-3.797 -2.175 -1.645
-3.794 -2.188 -1.646
-3.792 -2.195 -1.647
-3.775 -2.202 -1.642
-3.773 -2.216 -1.645
-3.763 -2.226 -1.643
-3.749 -2.234 -1.64
-3.747 -2.249 -1.642
-3.742 -2.262 -1.643
-3.735 -2.266 -1.642
-3.726 -2.276 -1.641
-3.719 -2.288 -1.641
-3.715 -2.302 -1.642
-3.698 -2.308 -1.638
-3.689 -2.318 -1.637
-3.685 -2.332 -1.639
-3.687 -2.349 -1.643
-3.676 -2.35 -1.639
-3.664 -2.359 -1.637
-3.655 -2.369 -1.636
-3.647 -2.381 -1.636
-3.643 -2.394 -1.638
-3.631 -2.402 -1.636
-3.626 -2.416 -1.637
-3.621 -2.421 -1.636
-3.613 -2.432 -1.636
-3.601 -2.44 -1.634
-3.596 -2.453 -1.636
-3.587 -2.464 -1.635
-3.581 -2.476 -1.636
-3.575 -2.488 -1.636
-3.566 -2.491 -1.634
-3.555 -2.5 -1.633
-3.547 -2.511 -1.633
-3.539 -2.522 -1.633
-3.53 -2.532 -1.632
-3.525 -2.545 -1.633
-3.514 -2.554 -1.632
-3.511 -2.561 -1.633
-3.502 -2.571 -1.632
-3.492 -2.581 -1.631
-3.483 -2.591 -1.63
-3.479 -2.605 -1.633
-3.465 -2.611 -1.63
-3.461 -2.626 -1.632
-3.456 -2.63 -1.631
-3.443 -2.637 -1.629
-3.434 -2.648 -1.629
-3.434 -2.665 -1.633
-3.419 -2.671 -1.63
-3.402 -2.675 -1.625
-3.402 -2.692 -1.63
-3.389 -2.691 -1.625
-3.388 -2.707 -1.629
-3.387 -2.723 -1.633
-3.358 -2.718 -1.622
-3.357 -2.734 -1.626
-3.358 -2.753 -1.631
-3.345 -2.76 -1.629
-3.331 -2.766 -1.626
-3.334 -2.777 -1.63
-3.311 -2.775 -1.622
-3.308 -2.791 -1.625
-3.297 -2.8 -1.624
-3.287 -2.809 -1.624
-3.27 -2.812 -1.619
-3.277 -2.836 -1.627
-3.257 -2.827 -1.619
-3.246 -2.836 -1.618
-3.244 -2.853 -1.622
-3.233 -2.86 -1.621
-3.222 -2.869 -1.62
-3.23 -2.894 -1.629
-3.203 -2.888 -1.619
-3.205 -2.9 -1.623
-3.197 -2.911 -1.624
-3.179 -2.912 -1.618
-3.182 -2.933 -1.625
-3.167 -2.938 -1.622
-3.156 -2.947 -1.621
-3.146 -2.956 -1.621
-3.143 -2.972 -1.624
-3.126 -2.965 -1.618
-3.117 -2.975 -1.618
-3.116 -2.993 -1.622
-3.098 -2.995 -1.618
-3.09 -3.006 -1.618
-3.083 -3.018 -1.62
-3.087 -3.031 -1.624
-3.094 -3.057 -1.634
-3.079 -3.062 -1.631
-3.067 -3.069 -1.63
-3.056 -3.077 -1.629
-2.492 -3.378 -1.573
-2.454 -3.348 -1.554
-2.455 -3.371 -1.562
-2.442 -3.376 -1.56
-2.443 -3.388 -1.565
-2.429 -3.392 -1.562
-2.409 -3.386 -1.556
-2.421 -3.425 -1.571
-2.403 -3.422 -1.566
-2.37 -3.399 -1.551
-2.366 -3.416 -1.556
-2.372 -3.436 -1.564
-2.364 -3.446 -1.565
-2.338 -3.433 -1.555
-2.338 -3.455 -1.562
-2.325 -3.459 -1.561
-2.303 -3.45 -1.553
-2.259 -3.408 -1.529
-2.272 -3.439 -1.542
-2.288 -3.486 -1.562
-2.265 -3.476 -1.553
-2.253 -3.48 -1.552
-2.225 -3.463 -1.54
-2.22 -3.477 -1.544
-2.208 -3.483 -1.543
-2.206 -3.493 -1.546
-2.197 -3.503 -1.547
-2.18 -3.5 -1.543
-2.153 -3.482 -1.531
-2.169 -3.531 -1.551
-2.137 -3.505 -1.535
-2.134 -3.524 -1.541
-2.129 -3.529 -1.542
-2.109 -3.52 -1.535
-2.093 -3.518 -1.531
-2.104 -3.562 -1.548
-2.085 -3.555 -1.542
-2.064 -3.546 -1.535
-2.05 -3.548 -1.533
-2.034 -3.544 -1.528
-2.021 -3.535 -1.522
-2.019 -3.557 -1.53
-2.003 -3.555 -1.526
-1.983 -3.546 -1.518
-1.986 -3.578 -1.53
-1.969 -3.574 -1.526
-1.958 -3.58 -1.526
-1.935 -3.553 -1.512
-1.914 -3.541 -1.503
-1.917 -3.571 -1.515
-1.909 -3.584 -1.518
-1.907 -3.608 -1.526
-1.892 -3.607 -1.523
-1.867 -3.587 -1.511
-1.857 -3.582 -1.507
-1.842 -3.579 -1.503
-1.858 -3.638 -1.527
-1.84 -3.63 -1.521
-1.828 -3.636 -1.521
-1.805 -3.619 -1.511
-1.798 -3.632 -1.515
-1.778 -3.607 -1.502
-1.735 -3.55 -1.473
-1.658 -3.42 -1.413
-1.663 -3.459 -1.428
-1.753 -3.671 -1.521
-1.732 -3.656 -1.512
-1.702 -3.625 -1.495
-1.679 -3.591 -1.479
-1.685 -3.633 -1.495
-1.604 -3.489 -1.429
-1.542 -3.384 -1.38
-1.587 -3.51 -1.434
-1.547 -3.451 -1.405
