ply
format ascii 1.0
comment Created by Open3D
element vertex 1755
property double x
property double y
property double z
end_header
5.37051 -1.37909 -1.73145
5.77557 -1.46991 -1.71143
6.28842 -1.58361 -1.70138
6.89497 -1.71932 -1.68871
7.63003 -1.88244 -1.67661
8.45967 -2.06818 -1.64815
8.85507 -2.11802 -1.50449
8.85909 -2.12029 -1.28989
8.85409 -2.12232 -1.07385
-0.000302219 -0.201016 -0.0154077
8.83509 -2.12268 -0.648169
8.84253 -2.12728 -0.437935
8.8377 -2.12768 -0.2259
8.85123 -2.13367 -0.015886
8.81891 -2.12971 0.193708
8.81918 -2.13118 0.405139
8.80276 -2.13063 0.6143
8.83056 -2.13812 0.827582
8.81411 -2.1376 1.03947
8.79298 -2.13601 1.24949
8.79822 -2.13856 1.46429
8.8094 -2.14403 1.68383
3.02548 -0.873931 -1.8539
3.1821 -0.909861 -1.84754
3.38475 -0.955579 -1.85963
3.5809 -1.00057 -1.8579
3.80307 -1.05148 -1.86038
3.99153 -1.09498 -1.83694
4.1972 -1.14172 -1.81243
4.43855 -1.19734 -1.7921
4.71747 -1.26158 -1.77564
5.02209 -1.33093 -1.75514
5.36731 -1.41044 -1.73259
5.77387 -1.5041 -1.71303
6.29366 -1.62247 -1.70487
6.89942 -1.76164 -1.69187
7.62758 -1.92909 -1.67821
8.46376 -2.12141 -1.65104
8.85577 -2.16963 -1.50637
8.85363 -2.17219 -1.29065
8.84708 -2.17219 -1.07423
8.84668 -2.1752 -0.861513
8.8433 -2.17742 -0.649484
8.8375 -2.17761 -0.438144
8.84203 -2.18166 -0.226197
8.84187 -2.18466 -0.0158095
8.81775 -2.18074 0.194014
8.81573 -2.18326 0.40559
8.81675 -2.18658 0.61619
8.82275 -2.19101 0.828027
8.81437 -2.19054 1.04094
8.78552 -2.18708 1.25012
8.7192 -2.17507 1.45302
8.80762 -2.19659 1.68575
3.02986 -0.893405 -1.85896
3.183 -0.929572 -1.85043
3.3802 -0.97527 -1.85959
3.58132 -1.02255 -1.86054
3.80154 -1.07445 -1.86204
3.99343 -1.11918 -1.84014
4.20236 -1.16873 -1.817
4.44166 -1.2254 -1.79568
4.7223 -1.29089 -1.77969
5.02457 -1.36248 -1.75828
5.36565 -1.44318 -1.73432
5.77365 -1.53863 -1.71518
6.29079 -1.66071 -1.70632
6.89032 -1.80102 -1.69181
7.61939 -1.97303 -1.67855
8.46787 -2.17338 -1.65393
8.85169 -2.22353 -1.50758
8.8576 -2.22633 -1.2928
8.85261 -2.22823 -1.07624
8.83862 -2.22809 -0.861804
8.83566 -2.22889 -0.649692
8.83525 -2.23182 -0.438531
8.83798 -2.2356 -0.226311
8.84202 -2.23791 -0.0157378
8.81165 -2.23399 0.19423
8.81549 -2.23796 0.406218
8.81298 -2.23878 0.616822
8.82085 -2.24362 0.829034
8.81012 -2.24423 1.04194
8.78548 -2.23996 1.25187
8.70771 -2.22493 1.45309
8.80328 -2.25023 1.68731
3.02583 -0.910498 -1.85892
3.18215 -0.948239 -1.85234
3.38082 -0.995524 -1.86235
3.58175 -1.04406 -1.86319
3.80344 -1.09755 -1.86541
3.99346 -1.14306 -1.84253
4.19855 -1.19294 -1.81772
4.4393 -1.25138 -1.79708
4.7214 -1.31896 -1.78169
5.01956 -1.39139 -1.75887
5.3696 -1.47636 -1.73783
5.77715 -1.57421 -1.71843
6.29918 -1.7006 -1.71082
6.88855 -1.84211 -1.69359
7.6338 -2.02244 -1.68389
8.46786 -2.22446 -1.65608
8.8418 -2.2746 -1.50784
8.85542 -2.27917 -1.29412
8.84277 -2.27927 -1.0764
8.85012 -2.28407 -0.863958
8.84521 -2.28443 -0.651154
8.83708 -2.28558 -0.439112
8.83779 -2.28879 -0.226512
8.83984 -2.29069 -0.0156605
8.81147 -2.28705 0.194586
8.81725 -2.29154 0.406946
8.80501 -2.29007 0.617174
8.82441 -2.29769 0.830595
8.80981 -2.29732 1.04341
8.7794 -2.29151 1.25278
8.79955 -2.29942 1.47067
8.80081 -2.30271 1.68924
3.01663 -0.926263 -1.85581
3.17097 -0.964536 -1.84837
3.37273 -1.01377 -1.86043
3.58027 -1.0651 -1.86493
3.79994 -1.11948 -1.86621
3.98617 -1.16528 -1.84167
4.19452 -1.21716 -1.81844
4.43859 -1.27788 -1.79921
4.71858 -1.34672 -1.78301
5.02005 -1.42176 -1.76138
5.38064 -1.51139 -1.74374
5.77661 -1.60885 -1.72057
6.30548 -1.74015 -1.71482
6.87709 -1.88091 -1.69306
7.64786 -2.07198 -1.68922
8.46173 -2.2742 -1.65712
8.845 -2.32871 -1.51035
8.84527 -2.3303 -1.29433
8.83838 -2.33171 -1.07726
8.84378 -2.33605 -0.864442
8.84856 -2.33867 -0.652193
8.83853 -2.33933 -0.439688
8.84506 -2.34402 -0.226903
8.84317 -2.34501 -0.0155901
8.81094 -2.34025 0.194936
8.81084 -2.34332 0.4073
8.80638 -2.34368 0.618225
8.82575 -2.35149 0.831964
8.81111 -2.35101 1.04511
8.78258 -2.34546 1.25507
8.79302 -2.35102 1.47172
8.80575 -2.35721 1.69265
3.01409 -0.943672 -1.85678
3.16481 -0.981978 -1.84735
3.3714 -1.03361 -1.86226
3.5718 -1.08443 -1.86309
3.7964 -1.14144 -1.86702
3.99297 -1.19091 -1.84732
4.19045 -1.24142 -1.81916
4.43777 -1.30447 -1.80135
4.71736 -1.37488 -1.78501
5.0221 -1.45256 -1.76452
5.36564 -1.54016 -1.7413
5.77589 -1.64363 -1.72272
6.30021 -1.7769 -1.71576
6.88051 -1.92341 -1.69623
7.62368 -2.11228 -1.68624
8.46304 -2.32592 -1.65964
8.84225 -2.38169 -1.5119
8.84438 -2.38367 -1.29592
8.84142 -2.38599 -1.07904
8.83514 -2.38753 -0.86474
8.84576 -2.39158 -0.652813
8.83184 -2.3913 -0.439896
8.84225 -2.39696 -0.227061
8.84818 -2.39988 -0.0155153
8.81984 -2.39596 0.195518
8.82354 -2.39995 0.408585
8.82292 -2.40121 0.620393
8.82675 -2.40525 0.833342
8.80435 -2.40278 1.04588
8.77963 -2.39799 1.25654
8.78618 -2.40272 1.47277
8.79885 -2.40895 1.69383
3.01816 -0.962761 -1.86184
3.16704 -1.00151 -1.85122
3.37687 -1.0553 -1.86785
3.57357 -1.10637 -1.86663
3.79442 -1.16383 -1.86869
3.98345 -1.21325 -1.84564
4.18977 -1.26649 -1.82142
4.42955 -1.32915 -1.80056
4.71575 -1.40382 -1.787
5.01851 -1.48203 -1.76575
5.37264 -1.57443 -1.746
5.78024 -1.68083 -1.72652
6.27049 -1.80755 -1.71013
6.88336 -1.96716 -1.69938
7.597 -2.15318 -1.68285
8.46733 -2.38007 -1.66289
8.83712 -2.43407 -1.51312
8.84087 -2.43819 -1.29724
8.84021 -2.43947 -1.08036
8.83981 -2.4424 -0.866337
8.83067 -2.44322 -0.652601
8.83452 -2.44562 -0.440563
8.841 -2.45039 -0.227263
8.84846 -2.45537 -0.015437
8.81864 -2.44921 0.195877
8.82229 -2.45326 0.409222
8.81739 -2.45511 0.621027
8.82116 -2.4592 0.834159
8.80686 -2.45693 1.04782
8.78365 -2.4541 1.25912
8.79019 -2.45886 1.47576
8.78601 -2.45927 1.6939
3.01018 -0.979375 -1.85975
3.16903 -1.02171 -1.8551
3.36664 -1.07359 -1.86498
3.57332 -1.12858 -1.86928
3.79211 -1.18679 -1.87034
3.98642 -1.23812 -1.84966
4.1851 -1.29138 -1.82214
4.42636 -1.35594 -1.80196
4.71241 -1.43152 -1.78832
5.01633 -1.51283 -1.76761
5.36995 -1.60736 -1.74773
5.77908 -1.71565 -1.72866
6.2795 -1.84926 -1.71513
6.86926 -2.00542 -1.6984
7.59132 -2.19805 -1.68403
8.46611 -2.43148 -1.66505
8.83513 -2.48907 -1.51499
8.84122 -2.49211 -1.29911
8.83636 -2.49397 -1.08144
8.83401 -2.49645 -0.867004
8.83696 -2.49869 -0.653922
8.82876 -2.49965 -0.44086
8.8411 -2.50601 -0.227514
8.84502 -2.50852 -0.0153674
8.8109 -2.50266 0.19609
8.82033 -2.50823 0.409856
8.81388 -2.50804 0.621796
8.82342 -2.51369 0.835716
8.81251 -2.51392 1.05021
8.77818 -2.50627 1.26031
8.77886 -2.50955 1.47616
8.7857 -2.51445 1.69657
3.00899 -0.997212 -1.86175
3.15745 -1.0377 -1.85113
3.36317 -1.09298 -1.86587
3.57309 -1.15014 -1.87192
3.78809 -1.20866 -1.87115
3.97326 -1.25876 -1.84635
4.1841 -1.31654 -1.8244
4.42862 -1.38343 -1.80555
4.71244 -1.46021 -1.791
5.01958 -1.5442 -1.77139
5.36353 -1.63833 -1.74827
5.77389 -1.74952 -1.72971
6.25496 -1.88101 -1.71102
6.87196 -2.04819 -1.70157
7.59863 -2.24647 -1.68812
8.45879 -2.48139 -1.66609
8.83137 -2.54206 -1.51654
8.83931 -2.54566 -1.30071
8.83834 -2.54848 -1.08322
8.83025 -2.54949 -0.86786
8.83893 -2.55326 -0.654963
8.83279 -2.55478 -0.441628
8.84499 -2.56111 -0.227855
8.84318 -2.56211 -0.0152906
8.81102 -2.55659 0.196491
8.81461 -2.56071 0.410301
8.81386 -2.56197 0.622849
8.81952 -2.56663 0.836722
-0.00024151 -0.197861 -0.0151623
-0.00024151 -0.197861 -0.0151623
-0.00024151 -0.197861 -0.0151623
-0.00024151 -0.197861 -0.0151623
3.00598 -1.01452 -1.86272
3.1627 -1.0583 -1.85696
3.3614 -1.11286 -1.8677
3.55722 -1.16744 -1.86649
3.78741 -1.23153 -1.87367
3.9795 -1.28468 -1.852
4.18467 -1.34213 -1.82743
4.42348 -1.40901 -1.80622
4.71416 -1.48939 -1.79436
5.0264 -1.57672 -1.77646
5.36622 -1.67188 -1.75179
5.76857 -1.78333 -1.73075
6.24889 -1.91762 -1.71197
6.86305 -2.08786 -1.70196
7.59418 -2.29188 -1.68971
8.45873 -2.53326 -1.6686
8.84442 -2.59978 -1.52101
8.83714 -2.59926 -1.3023
8.83426 -2.6016 -1.0843
8.83772 -2.60571 -0.869831
8.83484 -2.60641 -0.655589
8.82483 -2.60682 -0.441834
8.83706 -2.61329 -0.227925
8.83706 -2.61474 -0.0152171
8.81077 -2.61065 0.196887
8.8163 -2.61529 0.411121
8.81171 -2.61554 0.623757
8.81724 -2.62017 0.837911
8.84655 -2.63138 1.05779
-0.00027782 -0.197424 -0.0151293
-0.00027782 -0.197424 -0.0151293
-0.00027782 -0.197424 -0.0151293
3.00288 -1.03191 -1.86369
3.15933 -1.07653 -1.85789
3.35784 -1.13233 -1.86859
3.55846 -1.1895 -1.87003
3.78318 -1.25341 -1.87447
3.96783 -1.30564 -1.8495
4.1816 -1.3668 -1.82892
4.42003 -1.43508 -1.80763
4.71214 -1.51772 -1.79637
5.01653 -1.60473 -1.77576
5.37607 -1.70757 -1.75769
5.75384 -1.81465 -1.72904
6.2426 -1.95424 -1.71292
6.86143 -2.12959 -1.7042
7.59335 -2.33844 -1.69214
8.45654 -2.58482 -1.67075
8.83991 -2.65291 -1.52255
8.83464 -2.65296 -1.3039
8.83366 -2.65582 -1.08586
8.83526 -2.65941 -0.870872
8.83428 -2.66064 -0.656493
8.82423 -2.66094 -0.44241
8.83262 -2.66644 -0.228081
8.83262 -2.6679 -0.0151423
8.81021 -2.66481 0.197282
8.81182 -2.66835 0.41166
8.8072 -2.66849 0.624534
8.81658 -2.67431 0.839286
-0.000238287 -0.197082 -0.0151018
-0.000238287 -0.197082 -0.0151018
8.83448 -2.68705 1.49292
-0.000238287 -0.197082 -0.0151018
3.00143 -1.0498 -1.86569
3.15089 -1.09335 -1.85589
3.35403 -1.15169 -1.86948
3.55439 -1.21001 -1.87088
3.77704 -1.27484 -1.87443
3.97351 -1.33232 -1.85515
4.18192 -1.39257 -1.83196
4.41821 -1.46168 -1.80976
4.7042 -1.54525 -1.79631
5.01746 -1.6358 -1.77891
5.36359 -1.73706 -1.75644
5.74599 -1.84895 -1.72953
6.2435 -1.99298 -1.7159
6.8554 -2.17144 -1.70552
7.58987 -2.38572 -1.69415
8.45162 -2.63731 -1.67253
8.83706 -2.70672 -1.52443
8.83708 -2.70987 -1.30633
8.83844 -2.71167 -1.0881
8.83047 -2.71264 -0.87173
8.82905 -2.71532 -0.657111
8.81953 -2.71413 -0.442804
8.83552 -2.72186 -0.228427
8.83319 -2.72426 -0.0150642
8.80741 -2.7184 0.197637
8.81086 -2.72253 0.412386
8.80772 -2.72479 0.625721
8.81509 -2.73004 0.840662
8.85219 -2.74218 1.06213
-0.000274597 -0.196644 -0.0150688
8.82149 -2.73968 1.49332
8.832 -2.74419 1.71686
2.99459 -1.06669 -1.86462
3.14888 -1.11262 -1.8578
3.34326 -1.16978 -1.86662
3.54656 -1.23017 -1.86993
3.7777 -1.29814 -1.8778
3.97398 -1.35688 -1.85835
4.17479 -1.41697 -1.8319
4.41804 -1.4888 -1.81261
4.70358 -1.57399 -1.79899
5.01639 -1.66646 -1.78142
5.3088 -1.75401 -1.74149
5.63308 -1.85121 -1.6986
6.24048 -2.03069 -1.71786
6.85144 -2.21272 -1.7073
7.58884 -2.43103 -1.69658
8.44916 -2.68736 -1.67468
8.83717 -2.76313 -1.52695
8.83191 -2.76307 -1.30765
8.83293 -2.76654 -1.08919
8.8307 -2.76902 -0.873137
8.82594 -2.7691 -0.657874
8.81783 -2.76991 -0.443378
8.83042 -2.77506 -0.22858
8.83191 -2.77866 -0.0149917
8.80187 -2.77307 0.197943
8.80573 -2.77565 0.412927
8.80258 -2.77793 0.626491
8.81231 -2.78226 0.841847
8.81075 -2.7849 1.05895
8.82916 -2.79351 1.27849
-0.000235064 -0.196302 -0.0150413
8.83406 -2.79958 1.72027
2.98809 -1.08253 -1.86356
3.1437 -1.12984 -1.85776
3.34776 -1.19163 -1.87221
3.54762 -1.25159 -1.87347
3.77829 -1.32166 -1.88118
3.97247 -1.38088 -1.86074
4.16946 -1.44114 -1.83262
4.4141 -1.51495 -1.81402
4.70457 -1.60344 -1.80236
5.01483 -1.69799 -1.78392
5.19523 -1.75386 -1.70747
5.37487 -1.80872 -1.62412
-0.000271374 -0.195865 -0.0150083
6.84678 -2.25518 -1.70908
7.58995 -2.48145 -1.69983
8.45115 -2.74223 -1.67794
8.83406 -2.81544 -1.52882
8.83412 -2.8186 -1.31008
8.83743 -2.82104 -1.09143
8.82953 -2.82185 -0.874362
8.83007 -2.8252 -0.659195
8.81818 -2.82484 -0.444049
8.82693 -2.82901 -0.228791
8.82846 -2.83259 -0.0149204
8.80026 -2.82728 0.198347
8.80563 -2.83212 0.413744
8.79907 -2.83165 0.627402
8.80822 -2.83755 0.843037
8.85615 -2.8551 1.06645
-0.000271374 -0.195865 -0.0150083
-0.000271374 -0.195865 -0.0150083
-0.000271374 -0.195865 -0.0150083
2.98259 -1.10032 -1.86351
3.13631 -1.1481 -1.85673
3.34012 -1.21055 -1.87122
3.54452 -1.27393 -1.87522
3.7767 -1.34525 -1.88369
3.95663 -1.40136 -1.85662
4.16905 -1.46766 -1.83566
4.4133 -1.54288 -1.81687
4.69612 -1.63091 -1.8023
5.01875 -1.73035 -1.78835
5.14422 -1.77054 -1.69372
5.23474 -1.80017 -1.58493
5.35296 -1.83732 -1.48071
-0.000231841 -0.195523 -0.0149809
7.58648 -2.52638 -1.70185
8.45701 -2.79681 -1.68194
8.83109 -2.87291 -1.53101
8.82976 -2.87409 -1.31168
8.83835 -2.87981 -1.09344
8.82469 -2.87885 -0.875403
8.81244 -2.87667 -0.658986
8.81581 -2.88085 -0.444629
8.82644 -2.88556 -0.229083
8.82792 -2.88921 -0.014845
8.79789 -2.88319 0.198745
8.80365 -2.88649 0.414471
8.79661 -2.88751 0.628454
8.80807 -2.89254 0.844596
8.85202 -2.90918 1.06792
8.8209 -2.90282 1.28198
-0.000231841 -0.195523 -0.0149809
-0.000231841 -0.195523 -0.0149809
2.97752 -1.11669 -1.86347
3.12925 -1.1647 -1.8557
3.33608 -1.22931 -1.87211
3.53166 -1.29123 -1.87158
3.76142 -1.36389 -1.87936
3.96558 -1.42799 -1.8639
4.15654 -1.48882 -1.83329
4.40376 -1.56736 -1.8161
4.69161 -1.65782 -1.80362
5.02434 -1.76338 -1.79342
5.12235 -1.79582 -1.68949
5.14128 -1.80258 -1.55951
5.3028 -1.85505 -1.46952
-0.000268151 -0.195086 -0.0149478
-0.000268151 -0.195086 -0.0149478
8.45699 -2.84987 -1.68484
8.8292 -2.92594 -1.53321
8.82784 -2.92701 -1.31355
8.83465 -2.9323 -1.09476
8.82485 -2.93248 -0.876819
8.81065 -2.92954 -0.659886
8.81593 -2.9344 -0.445301
8.82225 -2.9396 -0.229292
8.82232 -2.9411 -0.0147751
8.79415 -2.9355 0.199093
8.80135 -2.94095 0.415195
8.79856 -2.9416 0.62978
8.8095 -2.94817 0.846344
-0.000268151 -0.195086 -0.0149478
8.82451 -2.95755 1.28484
8.84519 -2.96724 1.5082
-0.000268151 -0.195086 -0.0149478
2.982 -1.13649 -1.86954
3.12532 -1.18291 -1.85664
3.32842 -1.24763 -1.87113
3.53553 -1.31437 -1.87692
3.76319 -1.38782 -1.88359
3.95471 -1.44999 -1.86222
4.15966 -1.51572 -1.83786
4.40645 -1.59571 -1.82041
4.69008 -1.68759 -1.8063
5.01164 -1.79072 -1.79208
5.12213 -1.82781 -1.69242
5.14445 -1.83682 -1.56332
5.1826 -1.84982 -1.43907
5.21046 -1.86061 -1.31098
-0.000304461 -0.194648 -0.0149148
8.46164 -2.90618 -1.68883
8.8303 -2.98171 -1.53605
8.82476 -2.98319 -1.31542
8.83196 -2.98694 -1.09631
8.81843 -2.98591 -0.877676
8.82086 -2.98983 -0.661764
8.80955 -2.98782 -0.445697
8.8196 -2.99413 -0.229537
8.82484 -2.99904 -0.0146981
8.79733 -2.99184 0.199628
8.79866 -2.99541 0.415924
8.79732 -2.99822 0.630971
8.80242 -3.00301 0.847349
-0.000304461 -0.194648 -0.0149148
-0.000304461 -0.194648 -0.0149148
8.83043 -3.01988 1.5086
8.82741 -3.02044 1.73167
2.98127 -1.1553 -1.87256
3.12272 -1.20203 -1.85855
3.32213 -1.26699 -1.87108
3.53047 -1.3355 -1.87777
3.76469 -1.4126 -1.88782
3.95259 -1.47401 -1.86461
4.15524 -1.54115 -1.83936
4.39803 -1.62144 -1.82036
4.70641 -1.72228 -1.81582
5.0057 -1.82126 -1.79331
5.11591 -1.8589 -1.69355
5.14403 -1.86898 -1.56602
5.16899 -1.87895 -1.438
5.16565 -1.87877 -1.30217
5.22932 -1.90142 -1.18402
-0.000264927 -0.194306 -0.0148873
8.82858 -3.03848 -1.53857
8.82554 -3.03908 -1.31786
8.83413 -3.04501 -1.09856
8.81877 -3.04329 -0.879271
8.81986 -3.04519 -0.662811
8.80804 -3.04454 -0.446364
8.82184 -3.05226 -0.229931
8.81998 -3.05315 -0.0146253
8.79004 -3.04666 0.199937
8.79522 -3.05157 0.416647
8.79423 -3.0527 0.632026
8.80317 -3.05886 0.849093
-0.000264927 -0.194306 -0.0148873
-0.000264927 -0.194306 -0.0148873
8.81969 -3.07217 1.50965
8.82543 -3.07729 1.73471
2.96754 -1.16948 -1.86742
3.12021 -1.22076 -1.86047
3.31751 -1.28621 -1.87197
3.52726 -1.35652 -1.87951
3.75585 -1.43325 -1.88692
3.95214 -1.49868 -1.86781
4.15616 -1.5675 -1.84316
4.40209 -1.65038 -1.82539
4.694 -1.74783 -1.8144
4.99804 -1.85026 -1.79389
5.12078 -1.89283 -1.69826
5.1434 -1.90116 -1.56871
5.17391 -1.9132 -1.442
5.19467 -1.92101 -1.3118
5.20821 -1.9274 -1.18147
5.27856 -1.95271 -1.06299
8.83081 -3.09505 -1.54174
8.82973 -3.09628 -1.32084
-0.000301237 -0.193869 -0.0148543
5.34855 -1.95591 -0.540071
8.80328 -3.09551 -0.662734
8.80665 -3.09992 -0.44704
8.81668 -3.10645 -0.230138
8.81857 -3.10859 -0.0145542
8.79054 -3.10247 0.200431
8.79566 -3.10745 0.417559
8.78899 -3.10671 0.632935
8.80356 -3.11484 0.850834
8.87708 -3.14248 1.07937
-0.000301237 -0.193869 -0.0148543
8.816 -3.1269 1.51199
8.84408 -3.13953 1.74182
2.96675 -1.18772 -1.87043
3.11917 -1.23999 -1.86336
3.31793 -1.3072 -1.87568
3.51882 -1.37592 -1.87857
3.74873 -1.45452 -1.88687
3.94605 -1.52236 -1.86858
4.14824 -1.59112 -1.84311
4.39015 -1.67416 -1.82389
4.68288 -1.77465 -1.81367
4.99196 -1.87983 -1.79512
5.11457 -1.92313 -1.6994
5.13873 -1.93318 -1.57031
5.16941 -1.94446 -1.44346
5.1751 -1.94825 -1.30943
5.20525 -1.96039 -1.18307
-0.000261704 -0.193527 -0.0148268
8.82701 -3.1499 -1.54394
-0.000261704 -0.193527 -0.0148268
5.25619 -1.95677 -0.662007
5.2496 -1.95654 -0.531289
8.80478 -3.1537 -0.664057
8.80492 -3.15525 -0.447709
8.81296 -3.1612 -0.230386
8.81626 -3.16552 -0.0144746
8.78692 -3.15719 0.200826
8.79196 -3.1621 0.418288
8.7886 -3.16422 0.634263
8.80111 -3.17166 0.852402
8.88625 -3.20203 1.0827
8.80067 -3.17634 1.29153
-0.000261704 -0.193527 -0.0148268
-0.000261704 -0.193527 -0.0148268
2.96239 -1.20548 -1.8714
3.11625 -1.2592 -1.86527
3.30785 -1.3253 -1.87376
3.51175 -1.39636 -1.87852
3.74991 -1.47861 -1.8911
3.94525 -1.54699 -1.87178
4.14159 -1.61587 -1.84383
4.39564 -1.70394 -1.82966
4.67544 -1.80175 -1.81429
4.98583 -1.90944 -1.79634
5.11707 -1.95649 -1.70351
5.13769 -1.96553 -1.57302
5.19401 -1.98584 -1.45303
5.18876 -1.98589 -1.31537
5.21197 -1.99479 -1.18676
-0.0002502 -0.193052 -0.0147903
-0.0002502 -0.193052 -0.0147903
5.30359 -2.00549 -0.802289
5.27201 -1.99661 -0.6652
-0.0002502 -0.193052 -0.0147903
8.80269 -3.20914 -0.665099
8.80225 -3.21227 -0.448381
8.81273 -3.21739 -0.230732
8.8141 -3.22109 -0.0144028
8.78994 -3.216 0.201415
8.78981 -3.21754 0.419104
8.78636 -3.2196 0.635453
8.79755 -3.22497 0.853772
8.82752 -3.23856 1.07766
-0.0002502 -0.193052 -0.0147903
-0.0002502 -0.193052 -0.0147903
-0.0002502 -0.193052 -0.0147903
2.95346 -1.22051 -1.86932
3.11351 -1.27734 -1.86719
3.3082 -1.34571 -1.87747
3.50664 -1.41614 -1.87937
3.74421 -1.50041 -1.89191
3.94259 -1.57112 -1.87417
4.14227 -1.64163 -1.84763
4.38508 -1.72814 -1.82887
4.66965 -1.82952 -1.81561
4.98117 -1.93956 -1.79821
5.11591 -1.98876 -1.70644
5.12923 -1.99531 -1.57351
5.1781 -2.0134 -1.45145
5.20225 -2.02382 -1.32131
5.21776 -2.03117 -1.19045
5.28598 -2.05716 -1.0706
-0.000210665 -0.19271 -0.0147629
5.29117 -2.03488 -0.801949
5.26181 -2.02563 -0.665145
5.30224 -2.04164 -0.538417
-0.000210665 -0.19271 -0.0147629
8.806 -3.26822 -0.449332
8.81599 -3.27502 -0.231171
8.81542 -3.2781 -0.0143335
8.788 -3.27 0.201854
8.78739 -3.27304 0.419922
8.78386 -3.27503 0.636645
8.79814 -3.2833 0.855707
-0.000210665 -0.19271 -0.0147629
8.81616 -3.2945 1.2992
5.18015 -2.0172 0.887863
-0.000210665 -0.19271 -0.0147629
2.96196 -1.24286 -1.87846
3.10375 -1.29427 -1.86518
3.29629 -1.36315 -1.8746
3.50443 -1.43834 -1.88201
3.73466 -1.52164 -1.891
3.93432 -1.59408 -1.87412
4.14055 -1.66826 -1.85066
4.3794 -1.75504 -1.83028
4.66167 -1.85752 -1.81624
4.9761 -1.97064 -1.80007
5.11413 -2.02184 -1.70936
5.14198 -2.03377 -1.58062
5.17811 -2.04755 -1.45443
5.19312 -2.05493 -1.32172
5.21049 -2.06312 -1.19123
5.25816 -2.08212 -1.06721
-0.000246977 -0.192273 -0.0147298
5.27266 -2.06323 -0.800781
5.2602 -2.05977 -0.666249
5.2499 -2.05803 -0.534276
5.24232 -2.05733 -0.403556
-0.000246977 -0.192273 -0.0147298
-0.000246977 -0.192273 -0.0147298
-0.000246977 -0.192273 -0.0147298
-0.000246977 -0.192273 -0.0147298
8.78583 -3.33082 0.420833
8.78043 -3.33214 0.637832
8.78715 -3.33781 0.85652
-0.000246977 -0.192273 -0.0147298
-0.000246977 -0.192273 -0.0147298
5.18037 -2.05148 0.889867
5.1939 -2.05724 1.02538
2.94614 -1.25595 -1.87229
3.099 -1.31234 -1.86612
3.29116 -1.38231 -1.8755
3.5022 -1.45993 -1.88466
3.73545 -1.54572 -1.89523
3.93157 -1.6175 -1.87651
4.13376 -1.69234 -1.85138
4.37035 -1.77987 -1.83023
4.6541 -1.88378 -1.81688
4.97112 -2.00085 -1.80194
5.11247 -2.05419 -1.71228
5.13884 -2.0647 -1.58277
5.16739 -2.07698 -1.45438
5.18998 -2.08619 -1.32351
5.21101 -2.0958 -1.19366
-0.000207443 -0.191931 -0.0147023
8.80992 -3.37191 -1.55305
-0.000207443 -0.191931 -0.0147023
-0.000207443 -0.191931 -0.0147023
-0.000207443 -0.191931 -0.0147023
5.22993 -2.08545 -0.403358
-0.000207443 -0.191931 -0.0147023
-0.000207443 -0.191931 -0.0147023
-0.000207443 -0.191931 -0.0147023
5.23914 -2.09562 0.115031
-0.000207443 -0.191931 -0.0147023
-0.000207443 -0.191931 -0.0147023
-0.000207443 -0.191931 -0.0147023
-0.000207443 -0.191931 -0.0147023
5.27445 -2.11627 0.774725
5.17176 -2.08066 0.890247
-0.000207443 -0.191931 -0.0147023
2.9416 -1.27308 -1.87326
3.09907 -1.33218 -1.86999
3.29092 -1.40335 -1.87921
3.4982 -1.48095 -1.88641
3.72757 -1.56682 -1.89518
3.92308 -1.64049 -1.87647
4.12157 -1.71444 -1.84979
4.36464 -1.80586 -1.83163
4.64391 -1.91093 -1.81682
4.95704 -2.02773 -1.80061
5.1142 -2.08785 -1.7164
5.13838 -2.09873 -1.58602
5.16906 -2.11103 -1.45787
5.17317 -2.11446 -1.32206
5.20328 -2.12765 -1.19444
8.40219 -3.32101 -1.70344
-0.000243754 -0.191493 -0.0146693
-0.000243754 -0.191493 -0.0146693
-0.000243754 -0.191493 -0.0146693
8.81391 -3.43868 -0.890463
-0.000243754 -0.191493 -0.0146693
-0.000243754 -0.191493 -0.0146693
-0.000243754 -0.191493 -0.0146693
5.26164 -2.13683 -0.0143335
5.21866 -2.12186 0.114856
-0.000243754 -0.191493 -0.0146693
5.22849 -2.12945 0.375606
5.24224 -2.13653 0.507349
5.27007 -2.1478 0.643083
5.25177 -2.14294 0.773116
5.18454 -2.11992 0.894517
5.20711 -2.12927 1.03252
2.93999 -1.29197 -1.87628
3.09388 -1.35077 -1.87092
3.28366 -1.42238 -1.87916
3.49388 -1.50254 -1.88815
3.72641 -1.59048 -1.89856
3.91635 -1.66326 -1.87723
4.11769 -1.74048 -1.85206
4.35178 -1.82927 -1.83012
4.63394 -1.93727 -1.81677
4.94993 -2.05718 -1.80183
5.10677 -2.11819 -1.71753
5.13277 -2.12994 -1.58762
5.15983 -2.14112 -1.45832
5.17477 -2.14874 -1.32524
7.53618 -3.04335 -1.72689
8.3974 -3.37241 -1.70597
9.39314 -3.70635 -1.6618
9.4166 -3.71684 -1.42717
9.40659 -3.71665 -1.187
-0.000280064 -0.191056 -0.0146363
-0.000280064 -0.191056 -0.0146363
-0.000280064 -0.191056 -0.0146363
8.79445 -3.49698 -0.232177
-0.000280064 -0.191056 -0.0146363
-0.000280064 -0.191056 -0.0146363
-0.000280064 -0.191056 -0.0146363
5.21913 -2.15984 0.375802
5.25923 -2.17595 0.510192
5.24197 -2.1714 0.641047
5.20709 -2.16018 0.768156
5.19212 -2.15546 0.897814
5.19585 -2.15881 1.03258
2.93378 -1.30798 -1.87624
3.0874 -1.36762 -1.87088
3.27842 -1.44101 -1.88005
3.48148 -1.51973 -1.88542
3.71995 -1.61211 -1.89936
3.9198 -1.68999 -1.88287
4.10549 -1.76167 -1.85046
4.34581 -1.85531 -1.83153
4.62034 -1.9622 -1.81535
4.94094 -2.08598 -1.80242
5.11163 -2.15334 -1.72284
5.13944 -2.16598 -1.59308
-0.00024053 -0.190714 -0.0146088
-0.00024053 -0.190714 -0.0146088
-0.00024053 -0.190714 -0.0146088
8.39311 -3.42747 -1.70886
9.40102 -3.76894 -1.66659
-0.00024053 -0.190714 -0.0146088
-0.00024053 -0.190714 -0.0146088
-0.00024053 -0.190714 -0.0146088
-0.00024053 -0.190714 -0.0146088
9.37574 -3.77335 -0.482002
9.37472 -3.77647 -0.246962
-0.00024053 -0.190714 -0.0146088
-0.00024053 -0.190714 -0.0146088
-0.00024053 -0.190714 -0.0146088
8.78398 -3.56207 0.643985
5.34777 -2.24528 0.52029
5.26013 -2.2126 0.644819
5.20678 -2.19408 0.769879
5.18959 -2.1894 0.899491
5.18442 -2.18834 1.03263
2.92866 -1.32557 -1.87721
3.07385 -1.38299 -1.86691
3.26928 -1.45941 -1.87907
3.47853 -1.54189 -1.88806
3.71147 -1.63383 -1.89931
3.89917 -1.7075 -1.87713
4.09955 -1.78705 -1.85196
4.33753 -1.88136 -1.83221
4.61012 -1.98842 -1.8153
4.93312 -2.11631 -1.80365
5.09814 -2.18267 -1.72219
-0.00027684 -0.190277 -0.0145758
-0.00027684 -0.190277 -0.0145758
6.75571 -2.83533 -1.73309
7.51323 -3.13479 -1.72925
8.38165 -3.47831 -1.71027
9.39807 -3.83149 -1.66976
-0.00027684 -0.190277 -0.0145758
-0.00027684 -0.190277 -0.0145758
-0.00027684 -0.190277 -0.0145758
-0.00027684 -0.190277 -0.0145758
15.0966 -6.06187 -0.768807
-0.00027684 -0.190277 -0.0145758
-0.00027684 -0.190277 -0.0145758
-0.00027684 -0.190277 -0.0145758
9.29423 -3.81745 0.451427
-0.00027684 -0.190277 -0.0145758
8.77815 -3.62095 0.865433
8.82765 -3.64368 1.09466
5.24674 -2.24381 0.777735
5.19634 -2.22607 0.90279
5.18703 -2.22437 1.03565
2.92534 -1.34338 -1.87921
3.07181 -1.40223 -1.86981
3.26188 -1.47777 -1.87902
3.47402 -1.56285 -1.88981
3.71146 -1.65808 -1.90354
3.89006 -1.7302 -1.87708
4.08858 -1.80955 -1.85113
4.32948 -1.9066 -1.83288
4.61504 -2.0216 -1.8214
4.92192 -2.14425 -1.80359
5.25873 -2.27998 -1.77991
-0.000237303 -0.189935 -0.0145485
6.14246 -2.63462 -1.74475
6.74888 -2.87855 -1.73533
7.49742 -3.17964 -1.7296
8.37474 -3.53265 -1.71279
9.39528 -3.89236 -1.67292
-0.000237303 -0.189935 -0.0145485
-0.000237303 -0.189935 -0.0145485
-0.000237303 -0.189935 -0.0145485
-0.000237303 -0.189935 -0.0145485
15.0829 -6.15637 -0.769722
9.4251 -3.92189 -0.249122
14.7383 -6.03135 -0.0133211
14.6814 -6.01148 0.353358
9.28802 -3.87643 0.45225
9.32615 -3.89515 0.687984
8.76319 -3.67485 0.866062
8.79654 -3.68969 1.09334
-0.000237303 -0.189935 -0.0145485
5.19328 -2.26012 0.904469
5.19901 -2.26337 1.04052
2.92485 -1.36289 -1.88325
3.06615 -1.42072 -1.87074
3.25753 -1.49813 -1.88086
3.46914 -1.58441 -1.89156
3.69457 -1.67566 -1.89921
3.8812 -1.75222 -1.87703
4.08061 -1.8341 -1.85186
4.31951 -1.93107 -1.83283
4.60615 -2.04845 -1.82203
4.91412 -2.17362 -1.80482
5.25539 -2.31336 -1.78283
5.63178 -2.46763 -1.75604
6.13908 -2.67396 -1.74773
6.72788 -2.91483 -1.73389
7.48422 -3.22254 -1.73036
8.36507 -3.58268 -1.71457
9.38963 -3.95427 -1.67576
-0.000273613 -0.189497 -0.0145155
-0.000273613 -0.189497 -0.0145155
-0.000273613 -0.189497 -0.0145155
-0.000273613 -0.189497 -0.0145155
-0.000273613 -0.189497 -0.0145155
-0.000273613 -0.189497 -0.0145155
-0.000273613 -0.189497 -0.0145155
-0.000273613 -0.189497 -0.0145155
9.29256 -3.94001 0.453628
9.32872 -3.95815 0.689876
8.75836 -3.72935 0.867621
-0.000273613 -0.189497 -0.0145155
-0.000273613 -0.189497 -0.0145155
5.19081 -2.29246 0.906144
5.19605 -2.29658 1.04243
2.91185 -1.37611 -1.87911
3.06409 -1.43935 -1.87363
3.2518 -1.51653 -1.88174
3.46466 -1.60472 -1.8933
3.69101 -1.69863 -1.90174
3.87916 -1.77627 -1.88024
4.07136 -1.85643 -1.8518
4.3129 -1.95699 -1.83423
4.58703 -2.07024 -1.81856
4.90263 -2.20148 -1.80476
5.24841 -2.34549 -1.78456
5.62602 -2.50157 -1.75819
6.12285 -2.70811 -1.74716
6.71614 -2.95344 -1.73474
7.47571 -3.26898 -1.73238
8.35989 -3.63641 -1.71746
9.38491 -4.01294 -1.6786
-0.000234076 -0.189155 -0.0144883
-0.000234076 -0.189155 -0.0144883
-0.000234076 -0.189155 -0.0144883
-0.000234076 -0.189155 -0.0144883
-0.000234076 -0.189155 -0.0144883
15.0364 -6.34426 -0.390308
14.7174 -6.2164 -0.0131153
14.6781 -6.20602 0.355193
9.27635 -3.99536 0.453984
9.33329 -4.02034 0.691911
8.75075 -3.78464 0.868998
-0.000234076 -0.189155 -0.0144883
-0.000234076 -0.189155 -0.0144883
5.1895 -2.32639 0.908149
5.19292 -2.32977 1.04434
2.9002 -1.39055 -1.87601
3.06004 -1.45791 -1.87554
3.24573 -1.53549 -1.88264
3.45148 -1.62222 -1.89056
3.68229 -1.71945 -1.90169
3.87138 -1.79958 -1.881
4.07021 -1.88302 -1.85561
4.30437 -1.98214 -1.83491
4.58095 -2.09914 -1.82055
4.90148 -2.2337 -1.80855
5.24123 -2.37747 -1.78629
5.61224 -2.53452 -1.75813
6.1136 -2.74518 -1.74862
6.70679 -2.99588 -1.73652
7.45557 -3.31216 -1.73189
8.3538 -3.69164 -1.72034
9.38465 -4.07566 -1.68242
-0.000270386 -0.188718 -0.0144552
-0.000270386 -0.188718 -0.0144552
-0.000270386 -0.188718 -0.0144552
-0.000270386 -0.188718 -0.0144552
12.5351 -5.39967 -0.6463
15.0449 -6.44882 -0.391314
14.7183 -6.31868 -0.0130094
-0.000270386 -0.188718 -0.0144552
9.26899 -4.05447 0.454809
9.32695 -4.08226 0.69324
8.7531 -3.84613 0.871487
-0.000270386 -0.188718 -0.0144552
-0.000270386 -0.188718 -0.0144552
5.18404 -2.35984 0.909502
5.20039 -2.36763 1.04847
2.89303 -1.40732 -1.87597
3.05566 -1.47704 -1.87746
3.2442 -1.55708 -1.88634
3.44456 -1.64296 -1.89141
3.67813 -1.74305 -1.90421
3.86708 -1.82361 -1.88339
4.06015 -1.90678 -1.85556
4.29874 -2.00942 -1.83704
4.57164 -2.12586 -1.82119
4.89621 -2.26536 -1.81106
5.2316 -2.40955 -1.78742
5.60576 -2.56951 -1.76028
6.093 -2.77881 -1.74704
6.69949 -3.03791 -1.73877
7.44642 -3.35848 -1.7339
8.34077 -3.74248 -1.72176
9.3814 -4.13937 -1.68591
-0.000230849 -0.188376 -0.014428
-0.000230849 -0.188376 -0.014428
-0.000230849 -0.188376 -0.014428
-0.000230849 -0.188376 -0.014428
12.4027 -5.4308 -0.641091
15.0628 -6.56101 -0.392596
14.7325 -6.42401 -0.0129012
-0.000230849 -0.188376 -0.014428
9.27904 -4.12307 0.456566
9.33194 -4.14726 0.69541
8.74838 -3.90304 0.873239
-0.000230849 -0.188376 -0.014428
-0.000230849 -0.188376 -0.014428
5.1769 -2.39164 0.910528
5.18378 -2.39654 1.04778
2.88593 -1.42358 -1.87592
3.04336 -1.49213 -1.87447
3.2363 -1.57539 -1.8863
3.44104 -1.66449 -1.89406
3.67742 -1.7674 -1.90844
3.86062 -1.84753 -1.88496
4.04678 -1.92827 -1.85396
4.28651 -2.03307 -1.83626
4.56529 -2.15482 -1.82318
4.88412 -2.29306 -1.811
5.22398 -2.44156 -1.78915
5.59504 -2.60387 -1.76132
6.07975 -2.81427 -1.74749
6.68784 -3.07955 -1.74009
7.44007 -3.40768 -1.73675
8.33397 -3.79781 -1.72465
9.37299 -4.19911 -1.68842
-0.000267159 -0.187939 -0.014395
-0.000267159 -0.187939 -0.014395
-0.000267159 -0.187939 -0.014395
-0.000267159 -0.187939 -0.014395
12.3797 -5.50496 -0.641375
-0.000267159 -0.187939 -0.014395
14.708 -6.5165 -0.0127986
-0.000267159 -0.187939 -0.014395
9.27265 -4.18313 0.457485
9.3339 -4.21325 0.697443
8.74628 -3.96321 0.875357
8.82817 -4.00024 1.11115
-0.000267159 -0.187939 -0.014395
5.14746 -2.41485 0.907667
5.18184 -2.43068 1.05006
2.87702 -1.43962 -1.87486
3.03241 -1.50844 -1.87247
3.22317 -1.59207 -1.88344
3.43057 -1.68378 -1.89311
3.66304 -1.78662 -1.90582
3.84568 -1.86782 -1.88247
4.0414 -1.9541 -1.85623
4.28059 -2.06029 -1.83839
4.55354 -2.18147 -1.82313
4.87851 -2.32468 -1.8135
5.22279 -2.47754 -1.79327
5.58593 -2.63895 -1.76292
6.08 -2.85688 -1.75198
6.67775 -3.12195 -1.74187
7.42616 -3.45377 -1.73793
8.32678 -3.85314 -1.72754
9.37615 -4.26608 -1.6932
-0.000303467 -0.187501 -0.0143621
-0.000303467 -0.187501 -0.0143621
-0.000303467 -0.187501 -0.0143621
-0.000303467 -0.187501 -0.0143621
12.3808 -5.59232 -0.642956
13.6809 -6.16528 -0.359444
14.7032 -6.61772 -0.0126906
-0.000303467 -0.187501 -0.0143621
9.2726 -4.24817 0.458772
9.33722 -4.28018 0.699616
8.74192 -4.02266 0.877291
-0.000303467 -0.187501 -0.0143621
-0.000303467 -0.187501 -0.0143621
5.04559 -2.40603 0.891826
5.10541 -2.43334 1.03715
2.87002 -1.45532 -1.87482
3.02817 -1.52636 -1.87439
3.21849 -1.61113 -1.88527
3.42546 -1.70397 -1.89486
3.65403 -1.80658 -1.90577
3.84329 -1.89122 -1.88568
4.03319 -1.97697 -1.85695
4.27351 -2.08533 -1.8398
4.54779 -2.20793 -1.82513
4.86653 -2.35153 -1.81345
5.2134 -2.50787 -1.79441
5.5813 -2.67258 -1.76561
6.06854 -2.89199 -1.75294
6.66174 -3.15761 -1.7418
7.42269 -3.49988 -1.74119
8.31754 -3.90248 -1.72969
9.37133 -4.32606 -1.69638
-0.000216118 -0.187122 -0.0143312
9.39443 -4.34171 -1.21267
-0.000216118 -0.187122 -0.0143312
-0.000216118 -0.187122 -0.0143312
12.3651 -5.66752 -0.643613
-0.000216118 -0.187122 -0.0143312
14.7139 -6.71707 -0.0125871
-0.000216118 -0.187122 -0.0143312
9.26068 -4.30435 0.459408
9.34231 -4.34245 0.701783
8.74292 -4.07928 0.879591
-0.000216118 -0.187122 -0.0143312
-0.000216118 -0.187122 -0.0143312
-0.000216118 -0.187122 -0.0143312
-0.000216118 -0.187122 -0.0143312
2.86579 -1.47277 -1.87681
3.02203 -1.54414 -1.87532
3.21503 -1.63135 -1.88804
3.42324 -1.72628 -1.8984
3.64135 -1.82581 -1.90401
3.83976 -1.91662 -1.88889
4.02281 -1.99973 -1.85689
4.26423 -2.1103 -1.84047
4.53575 -2.23451 -1.82508
4.86781 -2.38533 -1.81851
5.20167 -2.53823 -1.79495
5.56647 -2.70529 -1.76556
6.05814 -2.92889 -1.75439
6.63865 -3.1943 -1.74036
7.40641 -3.54507 -1.74195
8.30791 -3.95712 -1.73221
9.37071 -4.38998 -1.70051
9.37358 -4.39503 -1.45721
9.37219 -4.39619 -1.21282
9.35186 -4.39079 -0.969756
9.34997 -4.39363 -0.730107
-0.000252428 -0.186684 -0.0142982
9.36635 -4.40649 -0.251658
14.7897 -6.85567 -0.0124688
-0.000252428 -0.186684 -0.0142982
9.25318 -4.36467 0.460321
9.33928 -4.40723 0.703542
8.73961 -4.13978 0.881708
-0.000252428 -0.186684 -0.0142982
-0.000252428 -0.186684 -0.0142982
-0.000252428 -0.186684 -0.0142982
-0.000252428 -0.186684 -0.0142982
2.85343 -1.48729 -1.87371
3.02183 -1.56523 -1.88017
3.20485 -1.64932 -1.88705
3.40914 -1.74389 -1.89566
3.64144 -1.85149 -1.9091
3.83138 -1.93899 -1.88965
4.01535 -2.02476 -1.85839
4.2544 -2.13586 -1.84114
4.52724 -2.26179 -1.82639
4.85472 -2.41383 -1.81846
5.19456 -2.57182 -1.79727
5.5589 -2.74019 -1.76771
6.047 -2.96683 -1.75585
6.6301 -3.23623 -1.7426
7.4012 -3.5938 -1.74521
8.29679 -4.00952 -1.73436
9.36359 -4.45335 -1.70367
9.37088 -4.45848 -1.46048
9.37414 -4.46373 -1.21623
9.35027 -4.45652 -0.972088
9.34372 -4.45532 -0.731425
9.3313 -4.45342 -0.491579
9.33926 -4.46078 -0.251536
9.33932 -4.46263 -0.0130705
-0.000212891 -0.186342 -0.014271
9.24458 -4.42665 0.461236
9.34199 -4.47309 0.705709
8.73837 -4.19958 0.884016
-0.000212891 -0.186342 -0.014271
-0.000212891 -0.186342 -0.014271
-0.000212891 -0.186342 -0.014271
-0.000212891 -0.186342 -0.014271
2.85056 -1.50547 -1.87672
3.01229 -1.58146 -1.87915
3.19955 -1.66888 -1.88889
3.405 -1.76543 -1.89831
3.63176 -1.87198 -1.90905
3.82261 -1.96214 -1.89041
4.00806 -2.04903 -1.85988
4.24651 -2.16155 -1.84255
4.52512 -2.29304 -1.83045
4.84695 -2.44377 -1.82033
5.18592 -2.60371 -1.799
5.54539 -2.77353 -1.7682
6.03795 -3.00449 -1.75782
6.61367 -3.27594 -1.743
7.38617 -3.63985 -1.74639
8.28816 -4.0649 -1.73725
9.36036 -4.51687 -1.70749
9.37411 -4.52696 -1.46485
9.37454 -4.52893 -1.21939
9.34362 -4.51835 -0.973871
9.33453 -4.51795 -0.732607
9.33917 -4.52183 -0.493175
-0.000249201 -0.185905 -0.0142379
9.3428 -4.53104 -0.0129868
9.33049 -4.52713 0.225943
9.2508 -4.49375 0.462901
9.34713 -4.54235 0.708165
8.73063 -4.25858 0.885762
-0.000249201 -0.185905 -0.0142379
-0.000249201 -0.185905 -0.0142379
-0.000249201 -0.185905 -0.0142379
-0.000249201 -0.185905 -0.0142379
2.8583 -1.52931 -1.88688
3.00234 -1.59816 -1.87812
3.19075 -1.68742 -1.88884
3.39227 -1.78361 -1.89646
3.61876 -1.891 -1.90729
3.82056 -1.98757 -1.89443
4.00031 -2.07399 -1.86137
4.24519 -2.19044 -1.84687
4.50954 -2.31705 -1.82902
4.83211 -2.47042 -1.81963
5.17197 -2.63321 -1.79895
5.53905 -2.80915 -1.7709
6.02338 -3.03976 -1.75827
6.59929 -3.31525 -1.74386
7.37738 -3.68571 -1.74882
8.28587 -4.12001 -1.74125
9.35772 -4.58286 -1.71163
-0.000209664 -0.185563 -0.0142107
-0.000209664 -0.185563 -0.0142107
9.33569 -4.58182 -0.975651
9.33652 -4.58398 -0.734619
9.3314 -4.58538 -0.494032
9.34553 -4.59385 -0.252822
9.3429 -4.59636 -0.0129097
9.32259 -4.59056 0.226487
9.25108 -4.55854 0.464282
9.3309 -4.60008 0.708933
8.7383 -4.32135 0.888997
-0.000209664 -0.185563 -0.0142107
-0.000209664 -0.185563 -0.0142107
8.76728 -4.34383 1.58132
-0.000209664 -0.185563 -0.0142107
2.85229 -1.54557 -1.88785
2.99759 -1.61603 -1.88004
3.18866 -1.7079 -1.89255
3.38817 -1.80451 -1.89911
3.61218 -1.91298 -1.90895
3.80713 -2.00692 -1.89275
3.98964 -2.09589 -1.86132
4.23185 -2.21357 -1.84608
4.50266 -2.34425 -1.83102
4.8257 -2.50112 -1.82214
5.15947 -2.6634 -1.79949
5.52776 -2.84131 -1.77194
5.99983 -3.07061 -1.75618
6.5869 -3.35419 -1.74518
7.36763 -3.7328 -1.75125
8.2702 -4.17076 -1.74266
9.3615 -4.64823 -1.71673
-0.000245974 -0.185126 -0.0141777
-0.000245974 -0.185126 -0.0141777
-0.000245974 -0.185126 -0.0141777
-0.000245974 -0.185126 -0.0141777
-0.000245974 -0.185126 -0.0141777
-0.000245974 -0.185126 -0.0141777
9.34161 -4.65934 -0.0128336
9.32671 -4.656 0.227307
9.24017 -4.61829 0.465104
9.29888 -4.64827 0.708449
8.75027 -4.38854 0.892786
-0.000245974 -0.185126 -0.0141777
-0.000245974 -0.185126 -0.0141777
-0.000245974 -0.185126 -0.0141777
-0.000245974 -0.185126 -0.0141777
2.84439 -1.56152 -1.88781
2.9925 -1.63446 -1.88195
3.17824 -1.72498 -1.89156
3.38361 -1.82592 -1.90176
3.59886 -1.93179 -1.9072
3.79625 -2.02915 -1.89271
3.98024 -2.11923 -1.86204
4.22679 -2.24082 -1.84895
4.49312 -2.37219 -1.83234
4.80892 -2.52686 -1.82081
5.14685 -2.69352 -1.80003
5.51888 -2.87711 -1.77409
5.99183 -3.10897 -1.75866
6.57326 -3.39539 -1.7465
7.35702 -3.78119 -1.75367
8.25698 -4.22453 -1.74481
9.35694 -4.71202 -1.72055
9.38324 -4.72853 -1.47798
-0.000282282 -0.184688 -0.0141447
-0.000282282 -0.184688 -0.0141447
-0.000282282 -0.184688 -0.0141447
-0.000282282 -0.184688 -0.0141447
15.0258 -7.48517 -0.399765
-0.000282282 -0.184688 -0.0141447
-0.000282282 -0.184688 -0.0141447
9.2414 -4.68419 0.466578
9.27223 -4.70301 0.708524
-0.000282282 -0.184688 -0.0141447
-0.000282282 -0.184688 -0.0141447
-0.000282282 -0.184688 -0.0141447
-0.000282282 -0.184688 -0.0141447
-0.000282282 -0.184688 -0.0141447
2.82688 -1.57346 -1.88164
2.98537 -1.65256 -1.88289
3.17226 -1.74506 -1.8934
3.36906 -1.84326 -1.89902
3.59982 -1.95829 -1.91313
3.78723 -2.0514 -1.89347
3.97037 -2.14326 -1.86276
4.21458 -2.26551 -1.8489
4.48046 -2.3977 -1.83229
4.80341 -2.55914 -1.82396
5.13703 -2.7262 -1.80176
5.50671 -2.91013 -1.77513
5.96576 -3.13982 -1.75607
6.55643 -3.43371 -1.7469
7.34492 -3.82751 -1.75569
8.25297 -4.28132 -1.74882
9.33879 -4.77145 -1.72209
-0.000242747 -0.184346 -0.0141174
9.35682 -4.78598 -1.23022
9.34054 -4.78177 -0.983961
9.33781 -4.78222 -0.740519
9.35068 -4.79249 -0.498825
15.0144 -7.5897 -0.40049
14.7553 -7.46483 -0.0118403
-0.000242747 -0.184346 -0.0141174
9.24319 -4.75278 0.468145
9.2407 -4.75331 0.708178
-0.000242747 -0.184346 -0.0141174
-0.000242747 -0.184346 -0.0141174
-0.000242747 -0.184346 -0.0141174
-0.000242747 -0.184346 -0.0141174
-0.000242747 -0.184346 -0.0141174
2.82039 -1.59011 -1.88262
2.97533 -1.66855 -1.88186
3.16002 -1.7613 -1.89147
3.37064 -1.86785 -1.90525
3.59119 -1.97945 -1.91394
3.7764 -2.0728 -1.89343
3.96561 -2.16902 -1.8658
4.20917 -2.29273 -1.85176
4.47771 -2.42805 -1.83634
4.7896 -2.58634 -1.8239
5.11888 -2.75364 -1.80052
5.49608 -2.94407 -1.77674
5.94861 -3.17374 -1.75601
6.54104 -3.47273 -1.74776
7.33433 -3.87464 -1.75811
8.26082 -4.34429 -1.75541
9.28041 -4.80896 -1.71619
9.29477 -4.81787 -1.47227
9.29102 -4.81984 -1.22504
9.30857 -4.83248 -0.983333
9.3272 -4.84364 -0.741703
9.32397 -4.84587 -0.49875
9.33896 -4.85723 -0.25506
9.33895 -4.85906 -0.0125983
9.32056 -4.85376 0.229441
9.23634 -4.81541 0.469246
9.23557 -4.8168 0.709929
8.78409 -4.59397 0.904351
-0.000279055 -0.183909 -0.0140845
-0.000279055 -0.183909 -0.0140845
-0.000279055 -0.183909 -0.0140845
-0.000279055 -0.183909 -0.0140845
2.81538 -1.60755 -1.88462
2.97601 -1.68998 -1.88769
3.15561 -1.7815 -1.89425
3.36722 -1.89002 -1.90879
3.58879 -2.00374 -1.91817
3.7655 -2.09411 -1.89338
3.9574 -2.19309 -1.86729
4.19859 -2.31733 -1.85243
4.46805 -2.45516 -1.83766
4.78415 -2.6178 -1.82705
5.11082 -2.78612 -1.80284
5.48349 -2.97695 -1.77778
5.93133 -3.2076 -1.75595
6.52896 -3.51358 -1.74955
7.32171 -3.92091 -1.76013
8.23494 -4.39047 -1.75496
-0.00023952 -0.183567 -0.0140571
-0.00023952 -0.183567 -0.0140571
-0.00023952 -0.183567 -0.0140571
9.26387 -4.87669 -0.981408
9.26284 -4.87793 -0.738703
9.26314 -4.88197 -0.496912
9.28867 -4.89877 -0.254385
9.31894 -4.916 -0.012523
9.29877 -4.90963 0.229659
9.23795 -4.88259 0.470819
9.23187 -4.88134 0.711818
-0.00023952 -0.183567 -0.0140571
8.76384 -4.65051 1.13775
-0.00023952 -0.183567 -0.0140571
8.76082 -4.6543 1.60342
-0.00023952 -0.183567 -0.0140571
2.81478 -1.62723 -1.88967
2.95955 -1.70273 -1.88275
3.15107 -1.80163 -1.89701
3.35733 -1.90896 -1.90875
3.57505 -2.0224 -1.91642
3.75442 -2.1154 -1.89333
3.94576 -2.21545 -1.86724
4.1896 -2.3428 -1.85383
4.4549 -2.48043 -1.8376
4.77176 -2.64586 -1.82764
5.09571 -2.81514 -1.80279
5.47245 -3.01075 -1.77937
5.93098 -3.25018 -1.76095
6.5131 -3.5525 -1.75041
7.31047 -3.96809 -1.76256
8.22104 -4.4429 -1.75712
9.06672 -4.83284 -1.68656
9.10514 -4.85431 -1.45071
-0.000275828 -0.18313 -0.0140242
-0.000275828 -0.18313 -0.0140242
-0.000275828 -0.18313 -0.0140242
-0.000275828 -0.18313 -0.0140242
9.26496 -4.95367 -0.254404
9.25777 -4.95179 -0.0124533
9.24298 -4.94813 0.228981
9.22319 -4.94179 0.471544
9.22413 -4.94408 0.713432
8.8017 -4.72978 0.911749
-0.000275828 -0.18313 -0.0140242
-0.000275828 -0.18313 -0.0140242
-0.000275828 -0.18313 -0.0140242
-0.000275828 -0.18313 -0.0140242
2.80334 -1.64144 -1.88759
2.957 -1.72263 -1.88663
3.13698 -1.8169 -1.89415
3.34106 -1.9246 -1.90511
3.56121 -2.04084 -1.91465
3.74811 -2.13915 -1.89572
3.93897 -2.24037 -1.8695
4.17542 -2.36566 -1.85306
4.44322 -2.50652 -1.83824
4.75918 -2.67377 -1.82822
5.08554 -2.84668 -1.80452
5.46118 -3.04457 -1.78098
5.90634 -3.28033 -1.75887
6.50048 -3.59317 -1.75219
6.92825 -3.82052 -1.67607
8.2068 -4.49529 -1.75927
8.93473 -4.82992 -1.66705
8.97088 -4.85054 -1.43368
9.00516 -4.87217 -1.19796
-0.000236292 -0.182788 -0.0139969
-0.000236292 -0.182788 -0.0139969
-0.000236292 -0.182788 -0.0139969
-0.000236292 -0.182788 -0.0139969
-0.000236292 -0.182788 -0.0139969
-0.000236292 -0.182788 -0.0139969
-0.000236292 -0.182788 -0.0139969
9.23719 -5.01802 0.716721
-0.000236292 -0.182788 -0.0139969
-0.000236292 -0.182788 -0.0139969
-0.000236292 -0.182788 -0.0139969
-0.000236292 -0.182788 -0.0139969
-0.000236292 -0.182788 -0.0139969
2.80532 -1.66331 -1.89469
2.95241 -1.74218 -1.88952
3.12721 -1.83512 -1.89411
3.33384 -1.94568 -1.90686
3.55972 -2.06669 -1.91974
3.73641 -2.16093 -1.89567
3.92826 -2.26413 -1.87022
4.17063 -2.39438 -1.85664
4.43275 -2.53427 -1.83955
4.75773 -2.70864 -1.83329
5.07137 -2.87741 -1.80507
5.44413 -3.07654 -1.78092
5.88782 -3.31488 -1.75881
6.48526 -3.63405 -1.75351
-0.000272601 -0.18235 -0.013964
-0.000272601 -0.18235 -0.013964
8.80052 -4.82628 -1.64722
8.8379 -4.84778 -1.41692
8.91744 -4.89363 -1.19001
-0.000272601 -0.18235 -0.013964
-0.000272601 -0.18235 -0.013964
12.3244 -6.70643 -0.662056
-0.000272601 -0.18235 -0.013964
-0.000272601 -0.18235 -0.013964
-0.000272601 -0.18235 -0.013964
-0.000272601 -0.18235 -0.013964
9.22767 -5.08265 0.718334
-0.000272601 -0.18235 -0.013964
-0.000272601 -0.18235 -0.013964
-0.000272601 -0.18235 -0.013964
8.73891 -4.83607 1.61434
-0.000272601 -0.18235 -0.013964
2.78764 -1.67414 -1.88852
2.94027 -1.75709 -1.88752
3.12394 -1.85607 -1.89782
3.32518 -1.96531 -1.90771
3.54563 -2.08501 -1.91798
3.72981 -2.18461 -1.89806
3.9162 -2.28635 -1.87018
4.15785 -2.41795 -1.85659
4.42243 -2.56112 -1.84087
4.74648 -2.73748 -1.83452
5.06078 -2.90882 -1.80679
5.43753 -3.11296 -1.78417
5.87139 -3.34928 -1.75926
6.47213 -3.67465 -1.75529
6.89211 -3.90423 -1.6776
6.86596 -3.89306 -1.48313
8.72486 -4.8504 -1.63808
8.72884 -4.85435 -1.40379
8.91292 -4.95667 -1.19295
-0.000233065 -0.182008 -0.0139366
-0.000233065 -0.182008 -0.0139366
12.3236 -6.79676 -0.663919
-0.000233065 -0.182008 -0.0139366
14.6645 -8.06253 -0.0112236
-0.000233065 -0.182008 -0.0139366
-0.000233065 -0.182008 -0.0139366
9.17118 -5.12021 0.716169
-0.000233065 -0.182008 -0.0139366
-0.000233065 -0.182008 -0.0139366
-0.000233065 -0.182008 -0.0139366
-0.000233065 -0.182008 -0.0139366
-0.000233065 -0.182008 -0.0139366
2.78655 -1.6939 -1.89358
2.93578 -1.77609 -1.89041
3.11736 -1.87539 -1.89965
3.31799 -1.98574 -1.90946
3.53617 -2.1059 -1.91879
3.71659 -2.20484 -1.8972
3.90895 -2.31118 -1.87244
4.1465 -2.44238 -1.85727
4.41033 -2.58708 -1.8415
4.73166 -2.76439 -1.83447
5.05005 -2.94034 -1.80853
5.42224 -3.14474 -1.78466
5.85644 -3.38451 -1.76021
6.45362 -3.71243 -1.75569
-0.000269374 -0.181571 -0.0139037
6.85825 -3.93974 -1.48603
8.71522 -4.90969 -1.64125
8.71399 -4.91082 -1.40566
8.92018 -5.02648 -1.1975
-0.000269374 -0.181571 -0.0139037
-0.000269374 -0.181571 -0.0139037
12.3362 -6.895 -0.666527
-0.000269374 -0.181571 -0.0139037
-0.000269374 -0.181571 -0.0139037
-0.000269374 -0.181571 -0.0139037
-0.000269374 -0.181571 -0.0139037
9.22143 -5.21567 0.722529
8.7828 -4.97995 0.921529
-0.000269374 -0.181571 -0.0139037
-0.000269374 -0.181571 -0.0139037
-0.000269374 -0.181571 -0.0139037
-0.000269374 -0.181571 -0.0139037
2.77627 -1.70869 -1.89252
2.91741 -1.7876 -1.88449
3.10595 -1.892 -1.89867
3.30285 -2.00183 -1.90672
3.52347 -2.12493 -1.91789
3.70489 -2.22583 -1.89716
3.89984 -2.33502 -1.87393
4.13667 -2.46758 -1.85867
4.40131 -2.61472 -1.8435
4.72164 -2.79394 -1.83633
5.0374 -2.97077 -1.80966
5.40677 -3.1765 -1.78516
5.83621 -3.41684 -1.75965
6.44345 -3.75484 -1.7584
7.26788 -4.2152 -1.77927
6.84848 -3.98543 -1.48855
8.71201 -4.97268 -1.64571
8.71262 -4.97488 -1.40977
8.9234 -5.09468 -1.20161
-0.000305684 -0.181134 -0.0138707
-0.000305684 -0.181134 -0.0138707
-0.000305684 -0.181134 -0.0138707
-0.000305684 -0.181134 -0.0138707
-0.000305684 -0.181134 -0.0138707
-0.000305684 -0.181134 -0.0138707
-0.000305684 -0.181134 -0.0138707
9.22018 -5.28375 0.724841
-0.000305684 -0.181134 -0.0138707
8.74407 -5.02788 1.15702
8.72062 -5.01666 1.38932
-0.000305684 -0.181134 -0.0138707
-0.000305684 -0.181134 -0.0138707
2.778 -1.73014 -1.89961
2.91726 -1.80907 -1.89033
3.09454 -1.90862 -1.89768
3.29853 -2.02394 -1.91027
3.52168 -2.15009 -1.92297
3.69115 -2.24648 -1.89629
3.88737 -2.35711 -1.87389
4.1218 -2.49005 -1.8579
4.38848 -2.64142 -1.84414
4.70158 -2.81795 -1.83436
5.02126 -2.99935 -1.80961
5.39224 -3.20999 -1.78621
5.82423 -3.45386 -1.76162
6.42885 -3.79645 -1.76018
7.25405 -4.26365 -1.7817
6.82239 -4.02368 -1.48775
6.90357 -4.02966 -1.31105
8.70996 -5.04057 -1.41386
8.92622 -5.16306 -1.2057
-0.000218332 -0.180754 -0.0138399
-0.000218332 -0.180754 -0.0138399
-0.000218332 -0.180754 -0.0138399
-0.000218332 -0.180754 -0.0138399
-0.000218332 -0.180754 -0.0138399
-0.000218332 -0.180754 -0.0138399
-0.000218332 -0.180754 -0.0138399
9.21581 -5.35259 0.727016
-0.000218332 -0.180754 -0.0138399
-0.000218332 -0.180754 -0.0138399
-0.000218332 -0.180754 -0.0138399
-0.000218332 -0.180754 -0.0138399
-0.000218332 -0.180754 -0.0138399
2.77178 -1.74792 -1.90161
2.90445 -1.8242 -1.88832
3.08576 -1.9274 -1.89858
3.29072 -2.04486 -1.91201
3.50839 -2.16975 -1.92208
3.68236 -2.26913 -1.89787
3.88082 -2.38335 -1.87692
4.10969 -2.51509 -1.85858
4.37912 -2.66903 -1.84614
4.69082 -2.84824 -1.83623
5.00944 -3.03158 -1.81134
5.37801 -3.24246 -1.78725
5.81484 -3.49377 -1.7646
6.40963 -3.83401 -1.76059
7.23381 -4.307 -1.78247
-0.000254642 -0.180317 -0.0138069
6.87551 -4.06731 -1.31002
8.70769 -5.10487 -1.41796
8.92933 -5.23415 -1.21003
-0.000254642 -0.180317 -0.0138069
7.06823 -4.18543 -0.580461
-0.000254642 -0.180317 -0.0138069
-0.000254642 -0.180317 -0.0138069
-0.000254642 -0.180317 -0.0138069
-0.000254642 -0.180317 -0.0138069
-0.000254642 -0.180317 -0.0138069
9.20665 -5.41709 0.728763
-0.000254642 -0.180317 -0.0138069
-0.000254642 -0.180317 -0.0138069
-0.000254642 -0.180317 -0.0138069
-0.000254642 -0.180317 -0.0138069
-0.000254642 -0.180317 -0.0138069
2.75821 -1.76091 -1.89851
2.89041 -1.83787 -1.88534
3.08024 -1.94738 -1.90135
3.27836 -2.06254 -1.91108
3.49999 -2.19131 -1.92374
3.67189 -2.29083 -1.89864
3.86965 -2.40623 -1.87764
4.09776 -2.53919 -1.85925
4.36636 -2.69474 -1.84677
4.67698 -2.87574 -1.83682
4.99126 -3.05902 -1.81069
5.36527 -3.2759 -1.78885
5.79733 -3.52778 -1.76505
6.39693 -3.87533 -1.76283
7.21668 -4.35203 -1.78407
8.07232 -4.8503 -1.76916
6.85635 -4.1084 -1.31061
8.70496 -5.16938 -1.42206
8.92417 -5.29892 -1.2132
6.97537 -4.18418 -0.762696
-0.000215105 -0.179975 -0.0137797
-0.000215105 -0.179975 -0.0137797
-0.000215105 -0.179975 -0.0137797
-0.000215105 -0.179975 -0.0137797
-0.000215105 -0.179975 -0.0137797
-0.000215105 -0.179975 -0.0137797
9.20398 -5.48553 0.731078
-0.000215105 -0.179975 -0.0137797
-0.000215105 -0.179975 -0.0137797
-0.000215105 -0.179975 -0.0137797
-0.000215105 -0.179975 -0.0137797
-0.000215105 -0.179975 -0.0137797
2.75053 -1.77725 -1.89949
2.88087 -1.8542 -1.8853
3.06854 -1.96392 -1.90037
3.26592 -2.08012 -1.91013
3.4868 -2.21011 -1.92284
3.65329 -2.30783 -1.89534
3.85673 -2.42804 -1.87759
4.08897 -2.56524 -1.86139
4.35343 -2.72042 -1.8474
4.67126 -2.90799 -1.84061
4.98286 -3.0922 -1.81362
5.34734 -3.30637 -1.7888
5.77958 -3.56168 -1.7655
6.38223 -3.91563 -1.76461
7.19762 -4.39614 -1.78525
8.04703 -4.89736 -1.76946
6.81829 -4.1385 -1.30763
6.88457 -4.17846 -1.13122
6.9212 -4.2028 -0.94704
6.9625 -4.22992 -0.763748
-0.000251415 -0.179537 -0.0137466
-0.000251415 -0.179537 -0.0137466
-0.000251415 -0.179537 -0.0137466
-0.000251415 -0.179537 -0.0137466
-0.000251415 -0.179537 -0.0137466
-0.000251415 -0.179537 -0.0137466
9.19909 -5.55321 0.733244
-0.000251415 -0.179537 -0.0137466
-0.000251415 -0.179537 -0.0137466
-0.000251415 -0.179537 -0.0137466
-0.000251415 -0.179537 -0.0137466
-0.000251415 -0.179537 -0.0137466
2.74724 -1.79617 -1.90352
2.86361 -1.86586 -1.88035
3.06122 -1.98289 -1.9022
3.25795 -2.10024 -1.91188
3.47818 -2.23169 -1.92451
