ply
format ascii 1.0
comment Created by Open3D
element vertex 1819
property double x
property double y
property double z
end_header
-0.00276539 -0.244326 -0.0154847
-0.00276539 -0.244326 -0.0154847
7.99919 5.22684 -0.465854
-0.00276539 -0.244326 -0.0154847
-0.00276539 -0.244326 -0.0154847
-0.00276539 -0.244326 -0.0154847
-0.00276539 -0.244326 -0.0154847
-0.00276539 -0.244326 -0.0154847
-0.00276539 -0.244326 -0.0154847
-0.00276539 -0.244326 -0.0154847
-0.00276539 -0.244326 -0.0154847
-0.00276539 -0.244326 -0.0154847
-0.00276539 -0.244326 -0.0154847
0.46734 0.0743995 -0.352018
0.473842 0.0785761 -0.338648
0.518082 0.108264 -0.349612
2.90313 1.71974 -1.77552
3.0803 1.83883 -1.77575
3.27152 1.96635 -1.77349
3.47044 2.09899 -1.76454
3.70001 2.25287 -1.75844
3.95629 2.42375 -1.75208
4.24212 2.61539 -1.74383
4.42747 2.73812 -1.68082
4.40194 2.71875 -1.53659
4.40648 2.72067 -1.40538
4.72243 2.93083 -1.36322
6.05012 3.82139 -1.56395
4.46405 2.75397 -1.02803
7.71438 4.98062 -1.54489
7.98204 5.15987 -1.36876
8.00626 5.17234 -1.14269
7.99296 5.15947 -0.914071
7.99903 5.16167 -0.689004
-0.00274413 -0.243887 -0.0154562
-0.00274413 -0.243887 -0.0154562
-0.00274413 -0.243887 -0.0154562
-0.00274413 -0.243887 -0.0154562
-0.00274413 -0.243887 -0.0154562
8.01784 5.15475 0.662327
8.02991 5.16101 0.889532
8.0285 5.15613 1.11803
-0.00274413 -0.243887 -0.0154562
-0.00274413 -0.243887 -0.0154562
-0.00274413 -0.243887 -0.0154562
0.469158 0.0720684 -0.351996
0.47714 0.0771857 -0.339605
0.54207 0.120414 -0.363663
2.91696 1.7059 -1.77728
3.09224 1.82133 -1.77572
3.28419 1.94787 -1.77346
3.48391 2.07928 -1.76451
3.71739 2.23402 -1.75985
3.96845 2.39919 -1.75068
4.25274 2.58628 -1.74123
4.4149 2.69206 -1.66947
4.3949 2.67774 -1.52829
4.40462 2.68203 -1.39926
4.72328 2.89131 -1.35811
6.07645 3.7859 -1.56431
4.48665 2.7311 -1.02909
7.75333 4.94438 -1.54679
7.96527 5.08227 -1.36065
7.98682 5.09476 -1.13569
7.98326 5.08857 -0.90957
7.98191 5.08379 -0.684915
7.97125 5.07272 -0.460643
-0.00277522 -0.243479 -0.0154304
7.99751 5.08435 -0.0137183
7.97216 5.06359 0.208684
7.974 5.06102 0.433017
-0.00277522 -0.243479 -0.0154304
8.00719 5.07718 0.883439
8.06203 5.10982 1.11831
-0.00277522 -0.243479 -0.0154304
-0.00277522 -0.243479 -0.0154304
-0.00277522 -0.243479 -0.0154304
0.479705 0.075302 -0.358085
0.476121 0.0727629 -0.337618
2.78978 1.59813 -1.79316
2.92437 1.6854 -1.77456
3.10449 1.80331 -1.77569
3.29413 1.92667 -1.7718
3.49765 2.05888 -1.76447
3.73363 2.2133 -1.76054
3.98563 2.37704 -1.75132
4.27211 2.56419 -1.74247
4.40621 2.65015 -1.65991
4.38651 2.63504 -1.51944
4.39715 2.64109 -1.39163
-0.0027436 -0.243177 -0.0154101
6.10378 3.75548 -1.56551
4.50867 2.70874 -1.03017
7.80128 4.90819 -1.54997
7.95544 5.00803 -1.35364
7.97618 5.0178 -1.12962
7.9708 5.01044 -0.904513
7.96845 5.00697 -0.681111
7.96421 5.00042 -0.458457
7.98499 5.01213 -0.235663
7.99052 5.01191 -0.0136738
7.95667 4.98583 0.207427
7.96439 4.98897 0.430821
-0.0027436 -0.243177 -0.0154101
8.05101 5.04012 0.884982
8.04623 5.03315 1.11185
8.00572 5.00271 1.33186
-0.0027436 -0.243177 -0.0154101
-0.0027436 -0.243177 -0.0154101
0.47856 0.0710843 -0.356021
0.482265 0.0733272 -0.340529
2.79559 1.57995 -1.79031
2.9381 1.67136 -1.77632
3.1162 1.78583 -1.77565
3.31233 1.91254 -1.77502
3.51354 2.0417 -1.76598
3.74929 2.19309 -1.76123
4.00651 2.35922 -1.75402
4.28822 2.53994 -1.74243
4.39554 2.60743 -1.64975
4.38469 2.59942 -1.51333
4.39911 2.60654 -1.38704
5.52824 3.33616 -1.57505
6.12678 3.72053 -1.56547
4.51731 2.67777 -1.02828
7.84152 4.87245 -1.55219
7.94152 4.93573 -1.34637
7.95721 4.94208 -1.12285
7.95499 4.93685 -0.899458
7.95585 4.93553 -0.677583
7.95325 4.93003 -0.456182
7.97654 4.94132 -0.234555
7.97783 4.94031 -0.0136331
7.94889 4.91766 0.206445
7.94909 4.9141 0.42835
-0.00277469 -0.242769 -0.0153843
8.01278 4.94963 0.877401
8.02314 4.95245 1.10445
-0.00277469 -0.242769 -0.0153843
-0.00277469 -0.242769 -0.0153843
-0.00277469 -0.242769 -0.0153843
0.481806 0.0696646 -0.357012
0.491496 0.0755633 -0.345402
2.79715 1.55849 -1.78465
2.95205 1.65673 -1.77808
3.13242 1.77104 -1.77819
3.32774 1.89579 -1.77661
3.52511 2.02081 -1.76517
3.76643 2.1738 -1.76265
4.01674 2.33332 -1.75193
4.30734 2.51756 -1.74368
4.391 2.56909 -1.64197
4.37348 2.55685 -1.50393
4.39422 2.56805 -1.38042
5.55204 3.30673 -1.57593
6.15606 3.68974 -1.56709
4.52249 2.64469 -1.02565
7.8742 4.82967 -1.55279
7.92795 4.86237 -1.33909
7.94513 4.86969 -1.11701
7.94277 4.86443 -0.89477
7.94187 4.86197 -0.673913
7.93584 4.85432 -0.45353
7.95917 4.86543 -0.233215
7.9621 4.86547 -0.0135934
7.92966 4.84094 0.205142
7.93662 4.84162 0.426061
-0.00280579 -0.242362 -0.0153583
7.99052 4.87047 0.871679
-0.00280579 -0.242362 -0.0153583
-0.00280579 -0.242362 -0.0153583
-0.00280579 -0.242362 -0.0153583
-0.00280579 -0.242362 -0.0153583
0.480786 0.0652373 -0.35495
0.497713 0.0758861 -0.34831
2.79732 1.53558 -1.77804
2.96632 1.64145 -1.77984
3.13786 1.74947 -1.77473
3.33579 1.87341 -1.77413
3.53849 2.00019 -1.76513
3.77866 2.15146 -1.76189
4.03671 2.31292 -1.75394
4.32641 2.49515 -1.74491
4.38938 2.53286 -1.63538
4.36894 2.51783 -1.49673
4.39893 2.53578 -1.37684
5.57794 3.27717 -1.57727
6.18687 3.65988 -1.56912
6.94049 4.13157 -1.55979
7.91253 4.78848 -1.55436
7.91631 4.78904 -1.33209
7.9334 4.79623 -1.11117
7.92923 4.78979 -0.8899
7.92317 4.78413 -0.669826
7.92715 4.78288 -0.451347
7.94456 4.79205 -0.231966
7.94833 4.79067 -0.0135526
7.91914 4.76843 0.204066
7.91852 4.76621 0.423487
-0.00272181 -0.242028 -0.0153354
7.99294 4.80767 0.86875
-0.00272181 -0.242028 -0.0153354
-0.00272181 -0.242028 -0.0153354
-0.00272181 -0.242028 -0.0153354
7.93278 4.75658 1.75354
0.473759 0.0574144 -0.348806
0.493618 0.069656 -0.344373
2.80575 1.51935 -1.77707
2.96775 1.6195 -1.77442
3.1508 1.73276 -1.77555
3.35099 1.85654 -1.77572
3.55254 1.98172 -1.76587
3.79553 2.13202 -1.76331
4.04656 2.28694 -1.75186
4.34211 2.47051 -1.74488
4.37453 2.48871 -1.62403
4.3603 2.47772 -1.48843
4.41808 2.51283 -1.37781
5.59975 3.24638 -1.57769
6.21828 3.62852 -1.57116
-0.0027529 -0.24162 -0.0153095
7.90369 4.72152 -1.54718
7.90322 4.7174 -1.32509
7.92278 4.72787 -1.10579
7.91333 4.71829 -0.885031
7.91313 4.71438 -0.666579
7.91107 4.71126 -0.448889
7.93106 4.72005 -0.230766
7.9348 4.71872 -0.0135094
7.9063 4.69909 0.202994
7.90657 4.69547 0.421291
-0.0027529 -0.24162 -0.0153095
7.97208 4.72892 0.863216
-0.0027529 -0.24162 -0.0153095
-0.0027529 -0.24162 -0.0153095
7.97176 4.71949 1.52957
7.89636 4.67068 1.73913
0.482783 0.0595371 -0.353877
0.492485 0.0653067 -0.342384
2.82517 1.50864 -1.78267
2.9863 1.60693 -1.77887
3.16247 1.7144 -1.77551
3.36769 1.84046 -1.77812
3.56248 1.9591 -1.76429
3.80799 2.10882 -1.76254
4.07069 2.26986 -1.75592
4.35973 2.44605 -1.74548
4.37435 2.45309 -1.61804
4.34805 2.43582 -1.47903
4.42285 2.47988 -1.37423
5.62304 3.21651 -1.57857
6.24375 3.59511 -1.57194
6.98781 4.04877 -1.55896
7.87932 4.64166 -1.53677
7.88955 4.64613 -1.31809
7.90986 4.65497 -1.09996
7.90373 4.64747 -0.880719
7.89743 4.64179 -0.662913
7.89784 4.63836 -0.446518
7.9212 4.64911 -0.229657
7.92069 4.64699 -0.0134725
7.89803 4.62935 0.202014
7.89659 4.62477 0.419192
-0.002784 -0.241213 -0.0152837
7.97176 4.66548 0.860098
-0.002784 -0.241213 -0.0152837
-0.002784 -0.241213 -0.0152837
7.92964 4.63041 1.51598
7.88012 4.59635 1.72918
0.486039 0.0579813 -0.354872
0.49426 0.0628077 -0.342359
2.82163 1.48441 -1.77419
2.99079 1.58634 -1.77525
3.1752 1.69743 -1.77634
3.37499 1.81849 -1.77565
3.572 1.93694 -1.76271
3.81986 2.08625 -1.76178
4.08186 2.24484 -1.75451
4.35892 2.41145 -1.73904
4.36214 2.41131 -1.60788
4.34199 2.39816 -1.47182
4.4467 2.45969 -1.37672
5.64123 3.18337 -1.57807
6.26912 3.56149 -1.57273
7.01413 4.00985 -1.55928
7.87873 4.57902 -1.53122
7.87873 4.57717 -1.31165
7.89387 4.58279 -1.09388
7.88928 4.57628 -0.876035
7.88619 4.57275 -0.659661
7.88829 4.57026 -0.444428
7.90656 4.57771 -0.22846
7.90601 4.57563 -0.0134335
7.88671 4.5602 0.200985
7.88696 4.55669 0.417181
-0.00275237 -0.24091 -0.0152633
7.96752 4.60029 0.856615
-0.00275237 -0.24091 -0.0152633
-0.00275237 -0.24091 -0.0152633
7.93727 4.57278 1.51214
7.87261 4.52985 1.72144
0.496554 0.0609109 -0.360963
0.49153 0.0575915 -0.339397
2.84361 1.47576 -1.78166
3.0074 1.57313 -1.77881
3.19101 1.68225 -1.77887
3.39026 1.80066 -1.77724
3.58606 1.91762 -1.76345
3.82846 2.06165 -1.75956
4.10144 2.22378 -1.75653
4.35468 2.37487 -1.73133
4.35764 2.37473 -1.6007
4.33619 2.35982 -1.46463
4.45559 2.43043 -1.37466
5.66646 3.15326 -1.5794
6.29835 3.52852 -1.57435
7.04093 3.96951 -1.55961
7.86243 4.50737 -1.52275
7.87152 4.50926 -1.30576
7.88749 4.51715 -1.0892
7.88102 4.50956 -0.872093
7.87536 4.50253 -0.656412
7.8731 4.49932 -0.442062
7.89307 4.50771 -0.227307
7.89676 4.50638 -0.0133887
7.87136 4.48936 0.199865
7.87676 4.48898 0.415174
-0.00278347 -0.240502 -0.0152375
7.96539 4.53478 0.85331
-0.00278347 -0.240502 -0.0152375
-0.00278347 -0.240502 -0.0152375
7.9115 4.49348 1.5018
7.85102 4.4555 1.71074
0.487993 0.0521135 -0.353801
0.499301 0.0586139 -0.343287
2.84922 1.45646 -1.77882
3.02434 1.55925 -1.78236
3.20079 1.6627 -1.77798
3.40041 1.78048 -1.7764
3.60514 1.90045 -1.7665
3.85005 2.04402 -1.76316
4.11556 2.20047 -1.75649
4.35217 2.33878 -1.72425
4.35504 2.33848 -1.59411
4.32956 2.3224 -1.45743
4.47135 2.40426 -1.37462
5.69436 3.12579 -1.58167
4.33872 2.32298 -1.08576
7.06846 3.9312 -1.5603
7.85149 4.43771 -1.51525
7.85968 4.44082 -1.29933
7.87633 4.44719 -1.08383
7.8663 4.43764 -0.867408
7.86136 4.43296 -0.653027
7.86497 4.4315 -0.440063
7.88329 4.43867 -0.226247
7.88787 4.43963 -0.0133558
7.86496 4.42244 0.198973
7.86691 4.42006 0.413162
-0.00276221 -0.240064 -0.015209
-0.00276221 -0.240064 -0.015209
-0.00276221 -0.240064 -0.015209
-0.00276221 -0.240064 -0.015209
7.8928 4.42103 1.49308
7.84151 4.38725 1.70264
0.492626 0.0514379 -0.355813
0.501024 0.0560835 -0.343262
2.86815 1.44574 -1.78442
3.02692 1.53761 -1.77784
3.21013 1.64375 -1.77709
3.41675 1.76405 -1.7788
3.61423 1.87818 -1.76492
3.86478 2.02311 -1.76385
4.12788 2.17619 -1.75577
4.34082 2.29865 -1.71398
4.34015 2.29634 -1.58336
4.32602 2.28717 -1.45133
4.48821 2.37976 -1.37509
5.72035 3.0973 -1.58347
4.31619 2.27662 -1.07658
7.10257 3.89677 -1.56247
7.84431 4.37278 -1.50873
7.84894 4.37378 -1.29316
7.86558 4.3799 -1.07869
7.85366 4.36941 -0.863097
7.85205 4.36666 -0.650064
7.84869 4.36119 -0.437697
7.86872 4.3693 -0.225094
7.8698 4.36824 -0.0133171
7.84506 4.35016 0.197756
7.85915 4.3548 0.411335
-0.00273058 -0.239761 -0.0151887
7.92016 4.38512 0.842604
-0.00273058 -0.239761 -0.0151887
-0.00273058 -0.239761 -0.0151887
-0.00273058 -0.239761 -0.0151887
7.83581 4.32351 1.69564
0.494349 0.0489076 -0.355789
0.502694 0.0535217 -0.343238
2.87015 1.42517 -1.77969
3.0402 1.52231 -1.7796
3.21472 1.62195 -1.77363
3.42664 1.74372 -1.77796
3.62804 1.85857 -1.76566
3.87776 2.00111 -1.76382
4.14017 2.15174 -1.75505
4.34554 2.26835 -1.7101
4.33484 2.26028 -1.57617
4.31385 2.24719 -1.44248
4.50658 2.35621 -1.37606
5.74288 3.06655 -1.58435
4.31203 2.24125 -1.07198
7.13312 3.86003 -1.56391
7.8332 4.30603 -1.50156
7.84795 4.31295 -1.28867
7.85252 4.31193 -1.07332
7.84734 4.30544 -0.859531
7.84049 4.29971 -0.646956
7.8405 4.29619 -0.435798
7.85704 4.30225 -0.224034
7.86339 4.30412 -0.0132798
7.83503 4.2842 0.196817
7.84048 4.28389 0.408951
-0.00276168 -0.239353 -0.0151629
7.89838 4.31192 0.837437
-0.00276168 -0.239353 -0.0151629
-0.00276168 -0.239353 -0.0151629
-0.00276168 -0.239353 -0.0151629
7.82274 4.25614 1.68716
0.503445 0.0507888 -0.360857
0.502874 0.0501553 -0.34223
2.87969 1.40895 -1.77966
3.0441 1.50165 -1.77598
3.22852 1.60552 -1.77531
3.43488 1.7225 -1.77629
3.64163 1.83897 -1.76639
3.88096 1.97358 -1.75942
4.15715 2.13008 -1.75638
4.33688 2.23048 -1.70111
4.32762 2.22333 -1.5684
4.30642 2.21029 -1.43528
4.52819 2.33437 -1.37805
5.77533 3.04147 -1.588
4.316 2.21101 -1.06945
7.15835 3.82018 -1.56424
7.82157 4.23968 -1.49438
7.83798 4.24738 -1.28278
7.84068 4.24528 -1.06818
7.8302 4.23578 -0.854852
7.82494 4.23107 -0.643571
7.8266 4.2286 -0.433614
7.84489 4.23549 -0.222973
7.84943 4.23632 -0.0132428
7.82795 4.22058 0.195976
7.82995 4.21826 0.407034
-0.00273006 -0.239051 -0.0151425
7.90196 4.25392 0.835064
-0.00273006 -0.239051 -0.0151425
-0.00273006 -0.239051 -0.0151425
-0.00273006 -0.239051 -0.0151425
7.81267 4.19095 1.67942
0.494644 0.0422748 -0.353695
0.492376 0.0407288 -0.334372
2.89689 1.397 -1.78432
3.06031 1.48791 -1.77954
3.24069 1.58807 -1.77614
3.44927 1.70485 -1.77789
3.65841 1.82094 -1.76867
3.89849 1.95428 -1.76157
4.16906 2.10555 -1.75566
4.32296 2.19005 -1.69019
4.32175 2.1875 -1.56122
4.30366 2.17641 -1.42974
4.54131 2.30758 -1.37751
5.79931 3.01132 -1.58934
4.30278 2.17109 -1.06277
7.18506 3.78109 -1.56493
7.80949 4.17348 -1.48722
7.83957 4.18885 -1.27885
7.8318 4.18085 -1.0635
7.82112 4.17142 -0.851097
7.81234 4.16479 -0.640461
7.81739 4.16412 -0.431716
7.83051 4.16796 -0.221873
7.83673 4.16986 -0.0132027
7.81522 4.15415 0.194989
7.82243 4.15485 0.405302
-0.00270879 -0.238612 -0.015114
-0.00270879 -0.238612 -0.015114
-0.00270879 -0.238612 -0.015114
7.86953 4.17082 1.25495
-0.00270879 -0.238612 -0.015114
7.79684 4.12323 1.67057
0.505242 0.0448268 -0.359787
0.507643 0.0459407 -0.343157
2.90313 1.37898 -1.78241
3.0702 1.47062 -1.7795
3.25434 1.57155 -1.77781
3.46081 1.68469 -1.77785
3.67344 1.80197 -1.77018
3.90782 1.9303 -1.76008
4.18623 2.08286 -1.757
4.31367 2.15264 -1.6812
4.30728 2.14722 -1.55106
4.29603 2.13911 -1.42254
4.55759 2.28274 -1.37798
5.82702 2.98189 -1.5916
4.2982 2.13546 -1.05817
7.21743 3.74346 -1.56674
7.80543 4.11247 -1.48167
7.82244 4.11849 -1.27185
7.81724 4.11384 -1.05813
7.80462 4.10343 -0.846601
7.80346 4.09932 -0.637632
7.80246 4.09706 -0.429537
7.81907 4.10277 -0.22086
7.82429 4.10226 -0.0131661
7.80364 4.08912 0.194055
7.80568 4.08678 0.4031
-0.00273989 -0.238204 -0.0150882
-0.00273989 -0.238204 -0.0150882
-0.00273989 -0.238204 -0.0150882
7.87477 4.11287 1.25165
-0.00273989 -0.238204 -0.0150882
7.78747 4.05958 1.6632
0.499361 0.0380313 -0.354663
0.510919 0.0441096 -0.34411
2.90959 1.36038 -1.7805
3.07723 1.45094 -1.77768
3.26661 1.55345 -1.77863
3.47531 1.66626 -1.77944
3.6871 1.78142 -1.77091
3.92717 1.911 -1.76295
4.19995 2.05831 -1.75696
4.31947 2.12275 -1.67796
4.318 2.1201 -1.54984
4.28643 2.10102 -1.41479
4.57078 2.255 -1.37744
5.85115 2.95041 -1.59294
4.29502 2.10098 -1.05397
7.24955 3.70568 -1.56854
7.79657 4.04738 -1.47514
7.81176 4.05221 -1.26598
7.81157 4.05051 -1.05392
7.79712 4.03918 -0.843033
7.79414 4.03401 -0.634809
7.7913 4.03084 -0.427544
7.81315 4.03932 -0.219987
7.81139 4.03496 -0.0131296
7.79237 4.02285 0.193113
7.79443 4.02058 0.401179
-0.00270826 -0.237902 -0.0150679
7.85938 4.0491 0.822353
-0.00270826 -0.237902 -0.0150679
-0.00270826 -0.237902 -0.0150679
-0.00270826 -0.237902 -0.0150679
7.77315 3.99204 1.65472
0.499488 0.0346313 -0.35362
0.50333 0.0365331 -0.338209
2.92498 1.3473 -1.78422
3.09632 1.43873 -1.78302
3.27368 1.53323 -1.77689
3.48275 1.64541 -1.77778
3.6971 1.75959 -1.77011
3.9444 1.89138 -1.7651
4.22096 2.03975 -1.76034
4.31136 2.08651 -1.66961
4.308 2.08287 -1.54147
4.28091 2.06731 -1.4087
4.58167 2.22713 -1.37639
5.8723 2.91982 -1.59383
4.28905 2.06709 -1.04937
7.27844 3.66908 -1.56998
7.85242 4.01963 -1.48093
7.87919 4.03246 -1.27288
7.85711 4.01712 -1.05665
7.83743 4.00302 -0.844658
7.82314 3.99357 -0.635183
7.79472 3.97483 -0.426386
7.80774 3.97846 -0.219159
7.80345 3.97448 -0.0130947
7.7834 3.96024 0.192271
7.78191 3.95603 0.399257
-0.00273936 -0.237494 -0.015042
-0.00273936 -0.237494 -0.015042
-0.00273936 -0.237494 -0.015042
7.83017 3.97194 1.23669
7.83527 3.97114 1.4486
7.76109 3.92793 1.64697
0.501043 0.0321428 -0.353592
0.494135 0.0282257 -0.331329
2.93251 1.32996 -1.78325
3.10596 1.42115 -1.783
3.28543 1.51553 -1.77771
3.49355 1.62567 -1.77775
3.70853 1.73865 -1.77007
3.9533 1.86729 -1.76361
4.23738 2.01747 -1.76167
4.30291 2.0505 -1.66125
4.29776 2.04578 -1.5331
4.27713 2.03396 -1.40315
4.58212 2.19384 -1.3723
5.89736 2.88992 -1.59563
4.28328 2.03261 -1.04477
7.30427 3.62932 -1.57068
7.92732 4.00164 -1.49027
7.95951 4.01727 -1.28172
7.94115 4.00396 -1.06447
7.91626 3.9872 -0.850358
7.90551 3.97981 -0.639724
7.87879 3.96215 -0.429493
7.87425 3.95629 -0.220219
7.86115 3.94767 -0.0130401
7.83392 3.92979 0.19302
7.82183 3.91994 0.400147
7.81191 3.91304 0.605691
7.81253 3.90997 0.812389
7.79125 3.89522 1.0186
7.80005 3.89834 1.2281
7.78088 3.88473 1.43403
7.74671 3.86332 1.63887
0.501055 0.0288161 -0.352547
0.512571 0.0347315 -0.342073
2.94461 1.31509 -1.78509
3.11703 1.40446 -1.78386
3.29872 1.49865 -1.77939
3.51066 1.60931 -1.78097
3.71821 1.71677 -1.76927
3.96869 1.84653 -1.76503
4.24861 1.99253 -1.76095
4.2858 2.01012 -1.64971
4.29391 2.01251 -1.52711
4.27481 2.00167 -1.39816
-0.00268647 -0.236753 -0.0149932
5.92215 2.85986 -1.59743
4.2876 2.00374 -1.04265
7.34218 3.59567 -1.57396
8.01796 3.99126 -1.50253
8.03826 4.00027 -1.29029
8.02693 3.99087 -1.07253
8.00036 3.97342 -0.856613
7.98615 3.96429 -0.644128
7.96304 3.94858 -0.432603
7.95852 3.94278 -0.221737
7.94359 3.93328 -0.0129833
7.91269 3.91368 0.194516
7.88988 3.89835 0.402533
7.89405 3.89878 0.61035
7.88927 3.89285 0.818016
7.85192 3.86993 1.02353
-0.00268647 -0.236753 -0.0149932
-0.00268647 -0.236753 -0.0149932
7.74059 3.80342 1.6326
0.511789 0.031022 -0.358641
0.51568 0.0329425 -0.343026
2.94564 1.29436 -1.78037
3.12172 1.38433 -1.78114
3.31026 1.48082 -1.78021
3.52321 1.58967 -1.78174
3.72943 1.69571 -1.76923
3.98061 1.82404 -1.76499
4.26011 1.96676 -1.76023
4.28022 1.97619 -1.64263
4.29323 1.98107 -1.52231
4.27604 1.97042 -1.39427
5.41469 2.55658 -1.60907
5.94731 2.8286 -1.59923
4.29558 1.97596 -1.04137
7.37704 3.55871 -1.5765
8.10349 3.97719 -1.51382
8.11777 3.98116 -1.29886
8.11469 3.97783 -1.08082
8.08638 3.95967 -0.863057
8.06415 3.9446 -0.64826
8.04729 3.9343 -0.435707
8.04286 3.92847 -0.223255
-0.00271757 -0.236345 -0.0149673
-0.00271757 -0.236345 -0.0149673
7.98458 3.88982 0.40632
7.97873 3.88333 0.615156
7.97913 3.88011 0.824955
7.90715 3.84141 1.02776
-0.00271757 -0.236345 -0.0149673
7.77773 3.76792 1.42471
7.72703 3.74027 1.62486
0.51181 0.027559 -0.357595
2.81782 1.20777 -1.79429
2.96254 1.28124 -1.78503
3.13764 1.36942 -1.78469
3.32361 1.46313 -1.78189
3.53204 1.56884 -1.7809
3.74742 1.67717 -1.77228
3.99448 1.80147 -1.76569
4.27272 1.94254 -1.7602
4.28477 1.94683 -1.6394
4.28251 1.94384 -1.51394
4.27673 1.93999 -1.39038
5.43641 2.52736 -1.61055
5.97011 2.79731 -1.60057
4.30482 1.94968 -1.04051
7.40226 3.51831 -1.5772
8.19509 3.96354 -1.52608
8.19658 3.96263 -1.30743
8.20321 3.96254 -1.08911
8.17144 3.94276 -0.869312
8.15029 3.93027 -0.653077
8.13955 3.92128 -0.439187
8.13154 3.91377 -0.224861
8.11295 3.90261 -0.0128594
8.07475 3.87962 0.197605
8.06599 3.87166 0.40936
8.05751 3.86565 0.619538
8.05951 3.8633 0.830959
7.93655 3.79745 1.02851
-0.00274866 -0.235938 -0.0149415
-0.00274866 -0.235938 -0.0149415
7.72422 3.68132 1.61935
0.524046 0.0304352 -0.364706
2.83393 1.19575 -1.79916
2.97285 1.26524 -1.78594
3.14526 1.35085 -1.78376
3.33175 1.44346 -1.781
3.54077 1.54795 -1.78006
3.75183 1.65258 -1.76917
4.00615 1.77883 -1.76565
4.27178 1.91147 -1.7547
4.27869 1.91315 -1.63232
4.27452 1.90917 -1.50676
4.27374 1.90786 -1.38539
5.45571 2.49809 -1.61152
5.99446 2.7667 -1.60238
4.31733 1.92526 -1.04047
7.43084 3.47938 -1.57864
8.28965 3.95226 -1.53898
8.27899 3.94514 -1.31656
8.2947 3.94949 -1.09787
8.25764 3.92727 -0.875758
8.25078 3.92217 -0.659013
8.22584 3.90609 -0.442388
8.21427 3.89678 -0.226337
8.20102 3.88845 -0.0127997
8.15913 3.86387 0.199244
8.15017 3.85599 0.412591
8.14334 3.85089 0.624485
8.14538 3.84833 0.837521
7.92952 3.73687 1.0246
-0.00266468 -0.235604 -0.0149185
-0.00266468 -0.235604 -0.0149185
7.71852 3.62308 1.61346
0.530211 0.0300215 -0.367743
2.8328 1.17509 -1.79325
2.98311 1.24921 -1.78685
3.15432 1.33306 -1.78373
3.33973 1.42383 -1.78011
3.55588 1.53036 -1.78246
3.76263 1.63126 -1.76914
4.01606 1.75524 -1.76489
4.26731 1.87878 -1.74783
4.25701 1.87197 -1.61949
4.26624 1.87475 -1.49958
4.27911 1.88019 -1.38315
5.48006 2.47122 -1.61402
6.0204 2.73678 -1.60464
4.3333 1.9024 -1.04126
7.468 3.4447 -1.58193
8.32778 3.91171 -1.54153
8.3721 3.93217 -1.32735
8.38805 3.93656 -1.10684
8.29753 3.88801 -0.877377
8.32105 3.89796 -0.662585
8.31045 3.88918 -0.445494
8.30249 3.88166 -0.227948
8.28383 3.87071 -0.0127435
8.2471 3.84914 0.20098
8.23633 3.84023 0.415908
8.22941 3.83513 0.629425
8.23305 3.83344 0.844271
7.88099 3.65626 1.01533
-0.00269578 -0.235196 -0.0148926
-0.00269578 -0.235196 -0.0148926
7.71948 3.56846 1.60905
0.531725 0.0273651 -0.367714
2.82989 1.15374 -1.78637
2.99475 1.23392 -1.78869
3.16172 1.3145 -1.7828
3.35091 1.40564 -1.78094
3.5644 1.50934 -1.78162
3.77998 1.61319 -1.77218
4.02747 1.73244 -1.76485
4.25916 1.84467 -1.73959
4.26573 1.84606 -1.61818
4.26289 1.84295 -1.49419
4.29129 1.85585 -1.38311
5.50251 2.44333 -1.616
6.041 2.70402 -1.60553
4.34375 1.87687 -1.04082
7.49791 3.40631 -1.58373
8.34091 3.85892 -1.53954
8.46359 3.91736 -1.33786
8.48333 3.92338 -1.11606
8.22278 3.79233 -0.86714
8.21394 3.78629 -0.652389
8.40946 3.87837 -0.449347
8.4015 3.87104 -0.22983
8.38285 3.86013 -0.0126785
8.34423 3.83775 0.202942
8.32254 3.82378 0.419235
8.31369 3.81773 0.63423
8.319 3.8168 0.850834
7.848 3.58413 1.00815
-0.00266415 -0.234893 -0.0148724
-0.00266415 -0.234893 -0.0148724
7.72368 3.51561 1.60539
0.53789 0.026951 -0.370745
2.82997 1.134 -1.78144
2.99838 1.21472 -1.78584
3.16737 1.29499 -1.78098
3.35868 1.38588 -1.78005
3.5744 1.48912 -1.78159
3.78556 1.58934 -1.76984
4.03871 1.70954 -1.76482
4.24901 1.80989 -1.73067
4.26054 1.81367 -1.61174
4.25591 1.80963 -1.48761
4.30671 1.8331 -1.38418
5.51965 2.41274 -1.61647
6.06828 2.67464 -1.60825
4.35765 1.85302 -1.0412
7.53474 3.37101 -1.58702
8.37149 3.81449 -1.5408
8.55515 3.90159 -1.34838
8.24058 3.74615 -1.08152
8.21363 3.72966 -0.863759
8.42031 3.82761 -0.666529
8.4888 3.85714 -0.452172
8.48992 3.85405 -0.231444
8.47476 3.84514 -0.0126117
8.43419 3.82207 0.204724
8.41785 3.81064 0.423021
8.41245 3.80639 0.640154
8.40148 3.79753 0.857023
7.82685 3.5186 1.00261
-0.00269525 -0.234486 -0.0148465
-0.00269525 -0.234486 -0.0148465
7.75397 3.47567 1.60728
0.522297 0.0159969 -0.359507
2.83315 1.11579 -1.77847
3.00511 1.19704 -1.78487
3.18102 1.27939 -1.78363
3.3729 1.36919 -1.78258
3.58781 1.46989 -1.78317
3.79605 1.56784 -1.7698
4.04314 1.6834 -1.76188
4.24919 1.77938 -1.72584
4.25342 1.78053 -1.60467
4.25205 1.77809 -1.48221
4.3241 1.81042 -1.38579
5.54178 2.38465 -1.61845
6.09605 2.64385 -1.61098
4.36641 1.82588 -1.04033
7.57382 3.33494 -1.59067
8.41071 3.77418 -1.54367
8.61357 3.86723 -1.35362
8.34415 3.7373 -1.0919
-0.00267398 -0.234047 -0.014818
8.29109 3.70516 -0.654665
-0.00267398 -0.234047 -0.014818
-0.00267398 -0.234047 -0.014818
-0.00267398 -0.234047 -0.014818
-0.00267398 -0.234047 -0.014818
8.71006 3.8898 0.43702
8.56437 3.81731 0.650141
8.50985 3.78796 0.865824
7.81785 3.45941 0.998696
-0.00267398 -0.234047 -0.014818
-0.00267398 -0.234047 -0.014818
-0.00267398 -0.234047 -0.014818
0.517552 0.010365 -0.355399
2.84267 1.10004 -1.77942
3.01354 1.17958 -1.78484
3.18997 1.26081 -1.7836
3.38237 1.3495 -1.78255
3.60092 1.45105 -1.78477
3.80498 1.54494 -1.769
4.05951 1.66213 -1.76403
4.24029 1.74567 -1.71761
4.24647 1.74676 -1.5976
4.24494 1.74427 -1.47563
4.33756 1.7866 -1.38631
5.56429 2.35523 -1.62045
6.1214 2.61315 -1.61324
4.37469 1.79931 -1.03947
7.62279 3.30478 -1.59655
8.44334 3.72872 -1.54524
8.73744 3.86498 -1.36913
8.4737 3.73778 -1.10551
8.61473 3.80033 -0.900176
8.50705 3.74812 -0.669499
8.59761 3.78705 -0.455233
-0.00264236 -0.233744 -0.0147977
-0.00264236 -0.233744 -0.0147977
-0.00264236 -0.233744 -0.0147977
8.88651 3.90927 0.444933
8.86972 3.89965 0.672023
8.86875 3.89546 0.900512
7.80719 3.39824 0.994551
-0.00264236 -0.233744 -0.0147977
-0.00264236 -0.233744 -0.0147977
7.72557 3.35228 1.59254
0.520504 0.00848421 -0.356392
2.84081 1.07965 -1.77351
3.02648 1.16469 -1.78763
3.19683 1.24208 -1.78267
3.38976 1.32966 -1.78166
3.61227 1.4314 -1.78555
3.8152 1.52328 -1.76897
4.06532 1.63671 -1.76181
4.23974 1.71602 -1.71279
4.23372 1.71156 -1.58861
4.24232 1.7138 -1.47084
4.30716 1.74272 -1.37306
5.58262 2.32509 -1.62142
6.14304 2.5806 -1.61459
6.82721 2.89103 -1.60929
7.67704 3.27671 -1.60353
8.46246 3.67874 -1.54455
8.84003 3.8515 -1.38131
8.62636 3.74915 -1.12214
8.81692 3.83352 -0.918477
8.61684 3.73952 -0.676126
8.7187 3.78285 -0.460197
9.68988 4.22612 -0.259879
9.68223 4.22074 -0.0121714
9.65381 4.20365 0.23455
9.02465 3.91086 0.450879
9.01487 3.90455 0.681447
9.00646 3.89691 0.912292
7.80457 3.34268 0.991562
-0.00267346 -0.233337 -0.0147718
-0.00267346 -0.233337 -0.0147718
-0.00267346 -0.233337 -0.0147718
0.532833 0.0108466 -0.363504
2.85944 1.06868 -1.78033
3.03284 1.14694 -1.78665
3.20863 1.22546 -1.78443
3.40202 1.31188 -1.78334
3.61683 1.40864 -1.78308
3.82355 1.50089 -1.76816
4.07939 1.61516 -1.76323
4.23203 1.68348 -1.70523
4.23797 1.68433 -1.58602
4.2309 1.67946 -1.46306
4.26421 1.69366 -1.35595
-0.00270455 -0.232929 -0.0147459
6.17154 2.55113 -1.61777
6.83621 2.84801 -1.60717
7.68461 3.2271 -1.60091
8.50284 3.63843 -1.54774
-0.00270455 -0.232929 -0.0147459
8.77214 3.75564 -1.13783
8.91998 3.81925 -0.926584
8.89935 3.80813 -0.69596
-0.00270455 -0.232929 -0.0147459
-0.00270455 -0.232929 -0.0147459
-0.00270455 -0.232929 -0.0147459
-0.00270455 -0.232929 -0.0147459
9.16671 3.91266 0.457012
9.16402 3.90955 0.69115
9.14444 3.89695 0.924074
7.8033 3.2882 0.98881
-0.00270455 -0.232929 -0.0147459
-0.00270455 -0.232929 -0.0147459
-0.00270455 -0.232929 -0.0147459
0.531133 0.00672365 -0.361439
2.8669 1.05249 -1.78031
3.04081 1.12977 -1.78662
3.2202 1.20884 -1.78619
3.4092 1.29192 -1.78245
3.62951 1.38968 -1.78467
3.83516 1.47996 -1.7689
4.0883 1.59125 -1.76247
4.22933 1.65321 -1.69974
4.23164 1.65254 -1.57959
4.23135 1.65075 -1.45946
4.25764 1.66164 -1.35041
-0.00262057 -0.232595 -0.014723
4.31794 1.68584 -1.1336
6.86993 2.81614 -1.61086
7.68104 3.17283 -1.59605
8.5952 3.62126 -1.56032
9.14686 3.86668 -1.42123
-0.00262057 -0.232595 -0.014723
9.0977 3.83719 -0.942293
8.99901 3.79127 -0.701758
-0.00262057 -0.232595 -0.014723
-0.00262057 -0.232595 -0.014723
-0.00262057 -0.232595 -0.014723
-0.00262057 -0.232595 -0.014723
9.31821 3.91695 0.463611
9.30991 3.91132 0.700574
9.27725 3.89306 0.935294
7.7799 3.22417 0.983265
-0.00262057 -0.232595 -0.014723
-0.00262057 -0.232595 -0.014723
-0.00262057 -0.232595 -0.014723
0.527827 0.00186762 -0.358358
2.86316 1.03135 -1.77342
3.05344 1.1147 -1.78941
3.23008 1.1913 -1.78706
3.42296 1.2748 -1.78499
3.64082 1.36914 -1.78545
3.845 1.45822 -1.76886
4.09704 1.56724 -1.76171
4.22149 1.62017 -1.69218
4.22508 1.62091 -1.57315
4.22822 1.62054 -1.45466
4.25481 1.63049 -1.34597
4.35668 1.67422 -1.259
4.35248 1.67069 -1.13956
6.89868 2.78036 -1.61331
7.73361 3.14159 -1.60267
8.65527 3.58868 -1.56708
9.28703 3.86378 -1.43897
9.24107 3.8417 -1.19167
9.23032 3.83326 -0.953363
9.21632 3.82336 -0.716444
-0.00265167 -0.232188 -0.0146971
-0.00265167 -0.232188 -0.0146971
-0.00265167 -0.232188 -0.0146971
-0.00265167 -0.232188 -0.0146971
9.46825 3.91881 0.470116
9.46224 3.91239 0.710422
9.31072 3.84227 0.936273
7.77968 3.17088 0.980746
-0.00265167 -0.232188 -0.0146971
-0.00265167 -0.232188 -0.0146971
-0.00265167 -0.232188 -0.0146971
0.514966 -0.00705339 -0.349153
2.87858 1.01821 -1.77829
3.06139 1.09695 -1.78938
3.23197 1.16958 -1.78344
3.43014 1.25412 -1.7841
3.64666 1.34705 -1.78379
3.8516 1.43416 -1.76729
4.10595 1.54247 -1.76095
4.21309 1.58794 -1.68463
4.22204 1.59016 -1.568
4.21809 1.58672 -1.44748
4.2513 1.60022 -1.34153
4.40885 1.66624 -1.2706
4.29187 1.6151 -1.1211
6.9375 2.75019 -1.61826
7.74206 3.09268 -1.60041
8.71937 3.55571 -1.57448
9.42495 3.86022 -1.45643
-0.00268276 -0.23178 -0.0146712
9.41336 3.84757 -0.969439
9.38789 3.83466 -0.727665
-0.00268276 -0.23178 -0.0146712
-0.00268276 -0.23178 -0.0146712
-0.00268276 -0.23178 -0.0146712
-0.00268276 -0.23178 -0.0146712
9.62115 3.91825 0.476718
9.60689 3.91029 0.71971
9.29563 3.77229 0.932401
7.77781 3.11562 0.977997
-0.00268276 -0.23178 -0.0146712
-0.00268276 -0.23178 -0.0146712
-0.00268276 -0.23178 -0.0146712
0.51942 -0.00826374 -0.351164
2.89215 1.00475 -1.78217
3.06738 1.07897 -1.7884
3.23997 1.15129 -1.78341
3.44006 1.23603 -1.78492
3.65394 1.32573 -1.78294
3.86455 1.4138 -1.7688
4.12094 1.52208 -1.7631
4.20452 1.55589 -1.67708
4.20952 1.55727 -1.55965
4.21236 1.55677 -1.44209
4.24939 1.57079 -1.33764
4.45325 1.65633 -1.28018
4.1913 1.5437 -1.09251
6.96128 2.71467 -1.61989
7.7497 3.04513 -1.59815
8.77919 3.52199 -1.58124
9.58495 3.86454 -1.47723
9.55125 3.84627 -1.22491
9.52827 3.83262 -0.978661
9.51028 3.82312 -0.735125
-0.00265114 -0.231478 -0.014651
-0.00265114 -0.231478 -0.014651
-0.00265114 -0.231478 -0.014651
-0.00265114 -0.231478 -0.014651
9.78396 3.92417 0.483885
9.77944 3.91826 0.731093
9.2555 3.69428 0.926115
7.78183 3.06626 0.976176
-0.00265114 -0.231478 -0.014651
-0.00265114 -0.231478 -0.014651
-0.00265114 -0.231478 -0.014651
0.520651 -0.0108043 -0.351139
2.89743 0.988201 -1.78116
3.07467 1.06211 -1.78838
3.25591 1.13701 -1.78786
3.4518 1.21794 -1.7866
3.66964 1.30781 -1.78617
3.87879 1.39467 -1.77108
4.1276 1.49721 -1.76161
4.2026 1.52698 -1.67226
4.20756 1.52821 -1.55514
4.20143 1.52404 -1.43492
4.24197 1.53925 -1.3321
5.71775 2.15368 -1.63536
4.17992 1.51093 -1.08695
6.99309 2.67977 -1.62316
7.76539 2.99792 -1.59737
8.8346 3.48786 -1.58734
9.74721 3.86795 -1.4983
9.75154 3.86786 -1.24732
9.72715 3.85368 -0.996404
9.61811 3.80405 -0.741478
-0.00262987 -0.231039 -0.0146225
-0.00262987 -0.231039 -0.0146225
-0.00262987 -0.231039 -0.0146225
-0.00262987 -0.231039 -0.0146225
9.95337 3.9289 0.491329
9.93202 3.91605 0.740943
9.20516 3.60892 0.918706
7.75671 3.00333 0.970627
-0.00262987 -0.231039 -0.0146225
-0.00262987 -0.231039 -0.0146225
-0.00262987 -0.231039 -0.0146225
0.501324 -0.0221133 -0.337858
2.91105 0.974064 -1.78505
3.08392 1.04491 -1.78928
3.25736 1.11532 -1.78424
3.46203 1.19848 -1.78742
3.67677 1.28626 -1.78532
3.88832 1.37203 -1.77104
4.13608 1.47233 -1.76085
4.19705 1.49667 -1.66607
4.2039 1.49781 -1.54999
4.19948 1.49429 -1.43072
4.24505 1.5122 -1.32986
4.27625 1.52336 -1.22395
4.17012 1.47899 -1.08185
7.01705 2.64265 -1.62479
7.7784 2.95123 -1.59622
8.90033 3.45375 -1.59507
-0.00259825 -0.230736 -0.0146022
9.93915 3.87775 -1.26787
9.83401 3.83044 -1.00469
9.82562 3.82509 -0.75533
10.8894 4.25966 -0.560977
10.8388 4.23447 -0.2838
-0.00259825 -0.230736 -0.0146022
-0.00259825 -0.230736 -0.0146022
10.122 3.92933 0.498684
10.0998 3.91816 0.751908
9.19952 3.54483 0.915956
7.76292 2.95229 0.969038
-0.00259825 -0.230736 -0.0146022
-0.00259825 -0.230736 -0.0146022
-0.00259825 -0.230736 -0.0146022
0.456275 -0.0434572 -0.30826
2.91953 0.958259 -1.786
3.0847 1.0248 -1.7855
3.2717 1.0996 -1.7878
3.46858 1.17814 -1.78654
3.68406 1.26408 -1.78448
3.89582 1.34927 -1.77024
4.15092 1.451 -1.763
4.18635 1.46359 -1.65784
4.19625 1.4668 -1.54356
4.19162 1.46332 -1.42473
4.26604 1.49162 -1.33313
4.29351 1.50189 -1.22594
4.16031 1.44661 -1.07675
7.04846 2.60723 -1.62807
7.80443 2.90836 -1.59766
8.94699 3.41315 -1.59956
-0.00262935 -0.230329 -0.0145763
10.0528 3.85746 -1.27917
10.0455 3.85054 -1.02354
10.0344 3.84205 -0.769184
-0.00262935 -0.230329 -0.0145763
-0.00262935 -0.230329 -0.0145763
-0.00262935 -0.230329 -0.0145763
-0.00262935 -0.230329 -0.0145763
10.294 3.93118 0.506224
10.2759 3.91973 0.763436
9.18666 3.47633 0.912459
7.74425 2.89303 0.964423
-0.00262935 -0.230329 -0.0145763
-0.00262935 -0.230329 -0.0145763
-0.00262935 -0.230329 -0.0145763
0.439857 -0.0529109 -0.297021
2.92172 0.939321 -1.78303
3.1019 1.01077 -1.7911
3.27954 1.0805 -1.78777
3.47856 1.15851 -1.78736
3.69602 1.24455 -1.78607
3.9052 1.3264 -1.77021
4.16262 1.42728 -1.7637
4.18552 1.43566 -1.6537
4.19041 1.43591 -1.53777
4.19628 1.43666 -1.42291
4.30981 1.48082 -1.34357
4.34332 1.49247 -1.23704
4.16451 1.42084 -1.07533
7.07745 2.57191 -1.63094
7.8334 2.868 -1.59984
9.01616 3.37942 -1.60793
11.0457 4.18958 -1.68375
-0.00266044 -0.229921 -0.0145504
10.2434 3.86048 -1.04092
10.2152 3.84737 -0.780953
-0.00266044 -0.229921 -0.0145504
-0.00266044 -0.229921 -0.0145504
-0.00266044 -0.229921 -0.0145504
-0.00266044 -0.229921 -0.0145504
10.4782 3.93376 0.514326
10.4554 3.92271 0.775248
9.17273 3.40974 0.908963
7.74056 2.83853 0.961669
-0.00266044 -0.229921 -0.0145504
-0.00266044 -0.229921 -0.0145504
-0.00266044 -0.229921 -0.0145504
0.420018 -0.0632443 -0.283738
2.93005 0.923422 -1.78398
3.11069 0.993858 -1.79201
3.29201 1.0639 -1.79043
3.48291 1.13809 -1.78562
3.70438 1.22363 -1.78604
3.91747 1.30562 -1.77172
4.16139 1.40037 -1.7593
4.17757 1.40501 -1.64683
4.18551 1.40733 -1.53262
4.18952 1.40724 -1.41753
4.35725 1.47099 -1.3551
4.38535 1.48112 -1.24612
4.16124 1.3922 -1.07208
7.10581 2.53763 -1.63381
7.86521 2.83023 -1.60276
9.06981 3.3408 -1.61372
11.1115 4.14218 -1.68982
10.4698 3.88558 -1.32536
10.4336 3.86731 -1.05754
10.3482 3.83179 -0.789108
-0.00257646 -0.229587 -0.0145275
-0.00257646 -0.229587 -0.0145275
-0.00257646 -0.229587 -0.0145275
-0.00257646 -0.229587 -0.0145275
10.6558 3.93583 0.522147
10.6409 3.92586 0.787477
-0.00257646 -0.229587 -0.0145275
7.72977 2.78479 0.958217
-0.00257646 -0.229587 -0.0145275
7.57058 2.71828 1.32284
-0.00257646 -0.229587 -0.0145275
0.414584 -0.0677218 -0.279633
2.94136 0.909267 -1.78689
3.12078 0.978066 -1.79386
3.29423 1.04385 -1.78771
3.49912 1.12167 -1.78986
3.71447 1.20322 -1.78682
3.92426 1.28344 -1.77091
4.17078 1.37665 -1.75927
4.17115 1.37518 -1.64065
4.18071 1.3781 -1.52747
4.18467 1.378 -1.41273
4.40644 1.46138 -1.36718
5.79895 1.99426 -1.63923
4.15058 1.36088 -1.06698
7.13487 2.50064 -1.63668
7.88882 2.78588 -1.60383
9.12835 3.30531 -1.62048
10.6581 3.89333 -1.61782
10.6631 3.89323 -1.34661
10.618 3.87171 -1.07362
-0.00260756 -0.22918 -0.0145017
-0.00260756 -0.22918 -0.0145017
-0.00260756 -0.22918 -0.0145017
-0.00260756 -0.22918 -0.0145017
-0.00260756 -0.22918 -0.0145017
10.8493 3.93987 0.530716
10.8193 3.92408 0.799142
-0.00260756 -0.22918 -0.0145017
7.72847 2.73341 0.955926
-0.00260756 -0.22918 -0.0145017
7.59899 2.67792 1.32483
-0.00260756 -0.22918 -0.0145017
0.412279 -0.071068 -0.27757
2.93994 0.889057 -1.78196
3.12956 0.96058 -1.79476
3.30675 1.02657 -1.79037
3.50539 1.1006 -1.78898
3.72295 1.18151 -1.78679
3.93494 1.26109 -1.77165
4.16627 1.34698 -1.75342
4.16649 1.34545 -1.63515
4.17425 1.34755 -1.52168
4.18341 1.34941 -1.40913
5.30889 1.77166 -1.64033
5.81755 1.96217 -1.64072
4.14718 1.33173 -1.06372
7.16015 2.46205 -1.63872
7.91761 2.74356 -1.606
9.19898 3.27034 -1.62918
11.2915 4.06181 -1.70917
10.8638 3.89724 -1.36855
10.7855 3.86326 -1.08784
10.7457 3.84407 -0.815146
11.9529 4.29923 -0.607242
-0.00263865 -0.228772 -0.0144758
-0.00263865 -0.228772 -0.0144758
11.9551 4.28837 0.285704
11.0496 3.9421 0.539574
10.909 3.88474 0.804088
9.10258 3.20023 0.895863
7.71808 2.67735 0.952475
7.54767 2.61023 1.12138
7.54592 2.60672 1.31253
7.58153 2.61865 1.51409
0.414813 -0.0724869 -0.278565
2.95123 0.874325 -1.78487
3.13142 0.94102 -1.79191
3.3139 1.00791 -1.79033
3.51136 1.08004 -1.78809
3.729 1.16044 -1.78594
3.94175 1.23806 -1.77086
4.15783 1.31688 -1.74611
4.16117 1.31731 -1.62965
4.16728 1.31798 -1.51589
4.18524 1.32302 -1.40671
5.32178 1.74308 -1.64084
5.83188 1.92962 -1.64119
4.14675 1.30556 -1.06139
7.19336 2.42918 -1.64283
7.93592 2.70028 -1.60634
9.27256 3.23774 -1.63852
11.3692 4.01905 -1.71719
11.0661 3.9016 -1.39072
10.9806 3.86546 -1.10483
10.9478 3.85114 -0.828446
-0.00260703 -0.228469 -0.0144555
-0.00260703 -0.228469 -0.0144555
-0.00260703 -0.228469 -0.0144555
11.9809 4.21977 0.285752
11.2477 3.94328 0.548333
10.9132 3.81717 0.802734
9.09736 3.14066 0.893481
7.71046 2.62421 0.949487
-0.00260703 -0.228469 -0.0144555
7.60425 2.5806 1.32004
-0.00260703 -0.228469 -0.0144555
0.407584 -0.0773834 -0.273436
2.96571 0.860616 -1.78974
3.14301 0.92518 -1.7947
3.32601 0.990951 -1.793
3.51715 1.05953 -1.78721
3.73715 1.13868 -1.78591
3.95187 1.21639 -1.77159
4.15615 1.28941 -1.74172
4.1544 1.28712 -1.62346
4.16727 1.29101 -1.51266
4.17259 1.29139 -1.39954
5.32974 1.71046 -1.6397
5.85152 1.89904 -1.64317
4.14113 1.27591 -1.05767
7.22381 2.39204 -1.64612
7.95505 2.6542 -1.60666
9.32392 3.19616 -1.64398
11.4518 3.97303 -1.72575
11.2781 3.90718 -1.41405
11.2004 3.87433 -1.12424
11.1499 3.85151 -0.841604
-0.00258576 -0.228031 -0.0144269
-0.00258576 -0.228031 -0.0144269
-0.00258576 -0.228031 -0.0144269
-0.00258576 -0.228031 -0.0144269
11.4611 3.94779 0.557842
10.8376 3.71656 0.795361
9.08913 3.07674 0.890728
7.70995 2.574 0.947431
-0.00258576 -0.228031 -0.0144269
7.58553 2.52296 1.31391
-0.00258576 -0.228031 -0.0144269
0.410129 -0.0789383 -0.274435
2.97053 0.842794 -1.78872
3.14323 0.904452 -1.79091
3.32815 0.969721 -1.79028
3.533 1.04276 -1.79145
3.74332 1.11683 -1.78507
3.95863 1.19261 -1.77079
4.14382 1.25818 -1.73297
4.14713 1.25778 -1.61728
4.16162 1.26227 -1.50751
4.18132 1.2677 -1.3995
5.34449 1.68132 -1.64077
5.86184 1.86502 -1.64263
4.13693 1.24786 -1.05441
7.25304 2.35731 -1.6494
7.98953 2.61666 -1.61032
9.36266 3.14775 -1.64718
11.5169 3.92203 -1.73182
11.48 3.90437 -1.43599
11.4419 3.88628 -1.14568
11.3685 3.85771 -0.856012
-0.00261686 -0.227623 -0.0144011
-0.00261686 -0.227623 -0.0144011
-0.00261686 -0.227623 -0.0144011
-0.00261686 -0.227623 -0.0144011
11.6749 3.95 0.567352
10.8264 3.64227 0.792883
9.0681 3.01218 0.886856
7.6867 2.51586 0.942581
-0.00261686 -0.227623 -0.0144011
-0.00261686 -0.227623 -0.0144011
-0.00261686 -0.227623 -0.0144011
0.409367 -0.0814464 -0.273389
2.97969 0.827731 -1.79065
3.15285 0.888377 -1.79276
3.34157 0.953875 -1.79383
3.54025 1.02275 -1.79142
3.75616 1.09744 -1.78747
3.96822 1.17147 -1.77153
4.14179 1.23093 -1.72857
4.14321 1.22995 -1.61246
4.15408 1.23292 -1.50172
4.17004 1.23693 -1.39293
5.3536 1.65028 -1.64019
5.87747 1.83284 -1.64361
4.14162 1.22312 -1.05346
7.2775 2.31781 -1.65144
8.01928 2.57407 -1.61287
9.41671 3.10826 -1.65329
11.6041 3.87838 -1.74122
11.6828 3.90405 -1.45816
11.6563 3.89028 -1.16453
11.6195 3.87277 -0.872784
15.9242 5.3885 -0.797298
-0.00258524 -0.22732 -0.0143808
-0.00258524 -0.22732 -0.0143808
-0.00258524 -0.22732 -0.0143808
11.8949 3.95186 0.577145
10.8109 3.56698 0.790127
9.05714 2.94806 0.883915
7.67614 2.46267 0.939359
-0.00258524 -0.22732 -0.0143808
7.56086 2.4165 1.30424
-0.00258524 -0.22732 -0.0143808
0.406936 -0.084583 -0.271321
2.99089 0.812087 -1.79356
3.15771 0.869435 -1.79179
3.35024 0.934898 -1.7947
3.55279 1.00375 -1.79396
3.76029 1.07489 -1.78582
3.97649 1.14821 -1.7715
4.13631 1.20183 -1.72272
4.13376 1.20026 -1.60559
4.15018 1.20427 -1.49721
4.17147 1.21001 -1.39051
5.36432 1.6198 -1.64015
5.89507 1.80015 -1.64509
4.14814 1.19893 -1.05297
7.30318 2.2799 -1.6539
8.03903 2.52938 -1.61357
9.48858 3.07077 -1.66231
11.7099 3.84046 -1.75339
11.9023 3.90276 -1.48218
11.8593 3.88331 -1.18208
-0.00261633 -0.226913 -0.0143549
13.0817 4.29946 -0.656188
13.0674 4.2895 -0.331598
13.0527 4.28192 -0.0105534
13.0431 4.2737 0.309851
12.133 3.955 0.587778
10.7741 3.48474 0.785824
9.0489 2.88712 0.881347
7.66758 2.40897 0.936369
-0.00261633 -0.226913 -0.0143549
7.59089 2.37836 1.30688
7.57352 2.36954 1.49685
0.407801 -0.0866302 -0.271299
3.00506 0.798053 -1.79842
3.17066 0.853893 -1.79552
3.35691 0.91596 -1.79467
3.5581 0.983097 -1.79307
3.77119 1.05473 -1.78742
3.98615 1.12626 -1.77223
4.12855 1.17302 -1.71615
4.13123 1.17316 -1.60146
4.1404 1.17469 -1.49078
4.17789 1.18575 -1.38988
5.37124 1.58798 -1.63901
5.90669 1.76651 -1.64506
4.15808 1.17599 -1.05339
7.32311 2.24006 -1.6551
8.0585 2.48467 -1.61427
9.53733 3.02661 -1.66744
11.7819 3.78984 -1.76057
12.1854 3.92279 -1.51407
12.0959 3.88768 -1.20297
11.972 3.8433 -0.895205
15.9794 5.19926 -0.796731
-0.00253235 -0.226579 -0.014332
-0.00253235 -0.226579 -0.014332
-0.00253235 -0.226579 -0.014332
12.367 3.95641 0.598228
10.748 3.40702 0.782368
9.0214 2.81999 0.876916
7.66197 2.35815 0.933848
-0.00253235 -0.226579 -0.014332
-0.00253235 -0.226579 -0.014332
-0.00253235 -0.226579 -0.014332
0.405308 -0.0896619 -0.269232
3.03075 0.787728 -1.81014
3.17014 0.833711 -1.79173
3.36337 0.897033 -1.79464
3.56671 0.963509 -1.79389
3.782 1.03451 -1.78901
3.99381 1.10364 -1.7722
4.12945 1.14719 -1.71321
4.12854 1.14609 -1.59733
4.1376 1.14758 -1.48691
4.18774 1.16262 -1.39045
5.38524 1.55853 -1.64008
5.92174 1.73398 -1.64604
4.16616 1.15233 -1.05336
7.34831 2.20187 -1.65756
8.08146 2.44096 -1.61572
9.59147 2.98389 -1.67355
11.8368 3.73296 -1.76525
12.3938 3.91448 -1.5367
12.3744 3.90332 -1.22793
12.3322 3.88696 -0.919893
16.1033 5.13831 -0.80122
-0.00256345 -0.226171 -0.0143061
-0.00256345 -0.226171 -0.0143061
-0.00256345 -0.226171 -0.0143061
12.6146 3.95967 0.609333
10.7253 3.33086 0.779185
9.01614 2.76081 0.874721
7.64653 2.30435 0.930161
-0.00256345 -0.226171 -0.0143061
7.5286 2.26107 1.29103
-0.00256345 -0.226171 -0.0143061
0.406058 -0.0916357 -0.269207
-0.00259454 -0.225764 -0.0142803
3.17792 0.816341 -1.79264
3.37152 0.878455 -1.79551
3.57181 0.942726 -1.79301
3.78747 1.01252 -1.78816
4.00143 1.08099 -1.77217
4.1143 1.11621 -1.70373
4.12211 1.11801 -1.59183
4.13463 1.12051 -1.48304
4.19389 1.1382 -1.38982
5.39549 1.52777 -1.64005
5.93116 1.69956 -1.6455
4.17401 1.12868 -1.05333
7.37525 2.16403 -1.66043
8.09483 2.39409 -1.61531
9.66049 2.94553 -1.68225
11.9215 3.68538 -1.77437
12.6988 3.93552 -1.57113
12.608 3.90106 -1.24844
12.5776 3.88878 -0.936103
-0.00259454 -0.225764 -0.0142803
-0.00259454 -0.225764 -0.0142803
-0.00259454 -0.225764 -0.0142803
-0.00259454 -0.225764 -0.0142803
12.874 3.96391 0.621002
10.6906 3.25155 0.775172
8.99341 2.69623 0.870847
7.64398 2.25505 0.928101
-0.00259454 -0.225764 -0.0142803
-0.00259454 -0.225764 -0.0142803
-0.00259454 -0.225764 -0.0142803
0.410167 -0.0926251 -0.271225
-0.00256292 -0.225461 -0.01426
3.19397 0.801617 -1.79824
3.38122 0.86057 -1.79727
3.58365 0.924175 -1.79554
3.79828 0.99145 -1.78976
4.00722 1.05763 -1.77137
4.10958 1.08888 -1.69861
4.11391 1.08867 -1.58565
4.11707 1.08898 -1.47405
4.20353 1.11495 -1.39039
5.40215 1.49494 -1.63892
5.93843 1.66454 -1.64445
4.18757 1.10597 -1.05468
7.40235 2.12472 -1.6633
8.12152 2.34994 -1.61749
9.7124 2.90102 -1.68804
12.0124 3.63669 -1.78433
12.9552 3.93737 -1.59955
12.8857 3.9102 -1.27322
12.8583 3.89655 -0.954818
14.2177 4.32965 -0.706379
14.2022 4.31934 -0.356312
-0.00256292 -0.225461 -0.01426
-0.00256292 -0.225461 -0.01426
13.1454 3.96897 0.633235
10.673 3.1762 0.77241
8.98978 2.63646 0.868836
7.61089 2.19619 0.922313
-0.00256292 -0.225461 -0.01426
-0.00256292 -0.225461 -0.01426
-0.00256292 -0.225461 -0.01426
-0.00259401 -0.225054 -0.0142341
0.413283 -0.0941199 -0.259032
3.19327 0.780899 -1.79446
3.39103 0.8419 -1.79903
3.59043 0.903161 -1.79551
3.80871 0.971006 -1.79136
4.02001 1.03593 -1.77365
4.11375 1.06366 -1.69712
4.11425 1.06308 -1.58288
4.12485 1.06486 -1.47402
4.2114 1.09032 -1.39036
5.41379 1.46476 -1.63943
5.9533 1.63076 -1.64543
4.18774 1.07989 -1.05281
7.44757 2.09223 -1.67032
8.14187 2.30521 -1.61856
9.7722 2.85676 -1.69512
12.1101 3.59156 -1.7954
13.2222 3.93708 -1.62912
13.1495 3.90917 -1.29651
13.095 3.88975 -0.970332
-0.00259401 -0.225054 -0.0142341
-0.00259401 -0.225054 -0.0142341
-0.00259401 -0.225054 -0.0142341
-0.00259401 -0.225054 -0.0142341
13.3188 3.93765 0.640592
10.6467 3.10075 0.769092
8.96997 2.57375 0.865338
7.60808 2.14602 0.920257
-0.00259401 -0.225054 -0.0142341
7.51441 2.11272 1.2814
-0.00259401 -0.225054 -0.0142341
-0.00257275 -0.224615 -0.0142055
0.414034 -0.096094 -0.259004
3.19733 0.762336 -1.79349
3.39027 0.820585 -1.79541
3.6038 0.884997 -1.7989
3.82093 0.950391 -1.79376
4.03433 1.01518 -1.7767
4.10329 1.03491 -1.68982
4.09846 1.0319 -1.57396
4.11043 1.03485 -1.46631
4.21706 1.06589 -1.38973
5.42002 1.43182 -1.6383
5.97127 1.59904 -1.64742
4.20287 1.05757 -1.05462
7.45557 2.04666 -1.66904
8.17368 2.26234 -1.62185
9.81054 2.80713 -1.69864
12.1855 3.53632 -1.80313
13.5269 3.94782 -1.66332
13.4813 3.92872 -1.32647
13.2451 3.85098 -0.979457
-0.00257275 -0.224615 -0.0142055
-0.00257275 -0.224615 -0.0142055
-0.00257275 -0.224615 -0.0142055
-0.00257275 -0.224615 -0.0142055
13.2375 3.82902 0.635482
10.6224 3.02439 0.765912
8.9617 2.5132 0.862953
7.62538 2.10365 0.920758
-0.00257275 -0.224615 -0.0142055
-0.00257275 -0.224615 -0.0142055
-0.00257275 -0.224615 -0.0142055
0.410811 -0.09928 -0.270129
-0.00254113 -0.224312 -0.0141853
3.20149 0.743122 -1.79252
3.39819 0.801304 -1.79628
3.61204 0.864476 -1.79972
3.82614 0.927535 -1.79292
4.03806 0.990552 -1.77513
4.10712 1.00977 -1.68834
4.09145 1.0036 -1.56846
4.10516 1.00693 -1.4618
4.22833 1.04222 -1.39089
5.43347 1.40104 -1.63937
5.98379 1.56454 -1.64789
4.21412 1.03416 -1.05551
7.47266 2.0038 -1.66983
8.1996 2.21744 -1.62403
9.89265 2.76862 -1.7096
12.257 3.4791 -1.81031
13.8425 3.95559 -1.69868
13.7784 3.93119 -1.35291
13.7237 3.90956 -1.01248
-0.00254113 -0.224312 -0.0141853
-0.00254113 -0.224312 -0.0141853
-0.00254113 -0.224312 -0.0141853
-0.00254113 -0.224312 -0.0141853
13.1753 3.72481 0.631306
10.5957 2.94782 0.762587
8.93581 2.44774 0.858892
7.59534 2.0456 0.915439
7.46707 2.0045 1.08362
-0.00254113 -0.224312 -0.0141853
-0.00254113 -0.224312 -0.0141853
0.409819 -0.101641 -0.269081
-0.00257222 -0.223905 -0.0141594
3.21697 0.728629 -1.79812
3.4056 0.783135 -1.79715
3.61462 0.843558 -1.79799
3.83405 0.907672 -1.7937
4.04477 0.968353 -1.7751
4.09788 0.982496 -1.68176
4.09263 0.980119 -1.56639
4.09922 0.980618 -1.45729
4.23533 1.01905 -1.39085
5.43851 1.37094 -1.63823
5.98818 1.52975 -1.64634
4.2209 1.01172 -1.05548
7.479 1.96208 -1.66855
7.43534 1.94653 -1.47166
9.95085 2.72596 -1.71668
12.3242 3.4272 -1.81721
14.1552 3.9642 -1.7338
14.0899 3.93965 -1.38083
14.0273 3.91857 -1.03286
-0.00257222 -0.223905 -0.0141594
15.3703 4.30382 -0.38161
15.331 4.2894 -0.0095552
15.3053 4.27613 0.360881
13.1358 3.63347 0.628351
10.5686 2.8779 0.759409
8.93106 2.39412 0.857068
7.56596 1.9912 0.910352
-0.00257222 -0.223905 -0.0141594
-0.00257222 -0.223905 -0.0141594
-0.00257222 -0.223905 -0.0141594
-0.00260331 -0.223497 -0.0141336
0.419547 -0.101235 -0.260888
3.21562 0.70852 -1.79434
3.40444 0.761872 -1.79353
3.62243 0.823635 -1.79881
3.8372 0.884252 -1.79204
4.0463 0.94378 -1.77276
4.08513 0.953471 -1.67374
4.07982 0.950514 -1.55883
4.09517 0.954183 -1.45343
4.24245 0.994967 -1.39082
5.44609 1.3384 -1.63765
5.99259 1.49398 -1.64479
4.22258 0.985294 -1.05407
7.49938 1.9201 -1.67018
7.40846 1.89137 -1.46386
10.0094 2.68108 -1.72376
12.4123 3.37354 -1.82689
14.4615 3.96467 -1.768
14.3547 3.92844 -1.40412
14.3334 3.917 -1.05323
-0.00260331 -0.223497 -0.0141336
-0.00260331 -0.223497 -0.0141336
-0.00260331 -0.223497 -0.0141336
-0.00260331 -0.223497 -0.0141336
13.1137 3.54536 0.626239
10.5447 2.80331 0.756367
8.91394 2.33201 0.853935
7.54996 1.93976 0.906898
-0.00260331 -0.223497 -0.0141336
-0.00260331 -0.223497 -0.0141336
-0.00260331 -0.223497 -0.0141336
0.412904 -0.105296 -0.270053
0.418629 -0.103835 -0.259883
3.22791 0.691585 -1.79807
3.4154 0.743508 -1.79619
3.62846 0.80303 -1.79878
3.84706 0.863463 -1.79364
4.06203 0.922642 -1.77658
4.07024 0.924264 -1.66498
4.07569 0.924303 -1.5547
4.09645 0.929341 -1.45148
4.24574 0.969802 -1.3896
5.45866 1.30838 -1.63872
6.00238 1.45982 -1.64475
6.70345 1.65377 -1.66196
7.52069 1.88112 -1.67222
7.98617 2.00839 -1.57438
10.0777 2.63647 -1.73246
12.5282 3.32933 -1.84073
14.8091 3.97061 -1.80705
14.7528 3.94913 -1.44019
14.6411 3.91501 -1.07375
-0.00251934 -0.223163 -0.0141106
-0.00251934 -0.223163 -0.0141106
-0.00251934 -0.223163 -0.0141106
-0.00251934 -0.223163 -0.0141106
13.0602 3.44904 0.62263
10.514 2.72935 0.752904
8.8878 2.27123 0.85006
7.54314 1.89119 0.904603
7.45645 1.86413 1.07676
-0.00251934 -0.223163 -0.0141106
-0.00251934 -0.223163 -0.0141106
0.416908 -0.106348 -0.272068
0.425989 -0.103914 -0.263773
3.23485 0.673849 -1.79898
3.41734 0.723771 -1.79437
3.63081 0.781546 -1.79704
3.85855 0.843121 -1.79605
4.06501 0.898557 -1.77501
4.06967 0.899111 -1.66205
4.07139 0.898135 -1.55057
4.07947 0.898903 -1.44313
4.24903 0.943924 -1.38838
5.45818 1.27474 -1.63593
6.01232 1.42445 -1.64472
6.70319 1.61129 -1.65916
