ply
format ascii 1.0
comment Created by Open3D
element vertex 1870
property double x
property double y
property double z
end_header
27.1408 15.555 1.50084
27.0663 15.5049 2.22621
27.0127 15.4607 2.95185
25.7179 14.6953 3.51256
26.8243 15.3315 4.39659
26.7596 15.2811 5.12044
26.6947 15.2305 5.85162
0.495398 0.0384537 -0.360678
0.515873 0.0500074 -0.355887
2.86544 1.4079 -1.77459
3.04028 1.5074 -1.77709
3.23679 1.61935 -1.78282
3.44593 1.73923 -1.78463
3.65247 1.85654 -1.77384
3.82191 1.95229 -1.73479
4.0497 2.0825 -1.71286
4.30702 2.22855 -1.69046
4.58077 2.38374 -1.65961
4.92498 2.58025 -1.63889
5.24433 2.76119 -1.59255
5.6385 2.98594 -1.54902
6.16128 3.28288 -1.51721
6.73705 3.60963 -1.46925
7.53447 4.1083 -1.43472
8.63194 4.74072 -1.40372
10.1443 5.60987 -1.36723
10.3036 5.69693 -1.1089
10.2927 5.68812 -0.82994
10.2962 5.68523 -0.553203
21.7585 12.2802 -0.558425
24.7369 13.989 0.0306713
26.5317 15.0093 0.745044
27.4636 15.532 1.51365
27.3937 15.485 2.24567
27.3429 15.4428 2.97802
26.1586 14.7507 3.56101
27.1525 15.3139 4.43563
27.073 15.2554 5.16323
27.0018 15.2016 5.89933
0.504507 0.040226 -0.365738
0.51154 0.0439617 -0.351951
2.86734 1.38733 -1.76989
3.04725 1.48845 -1.77529
3.2507 1.60286 -1.78451
3.46405 1.72269 -1.78786
3.6694 1.83855 -1.77614
3.83932 1.93343 -1.73695
4.06182 2.05786 -1.71218
4.31794 2.2022 -1.68918
4.59758 2.35862 -1.6602
4.92495 2.54187 -1.63341
5.26829 2.73517 -1.59456
5.65922 2.9538 -1.54948
6.19069 3.25149 -1.51928
6.76664 3.57387 -1.47073
7.57318 4.07296 -1.43731
8.63045 4.67207 -1.3988
10.1813 5.55368 -1.36772
10.2875 5.60927 -1.10364
10.2879 5.60451 -0.826853
10.2834 5.5995 -0.550816
22.0355 12.2716 -0.563589
24.9688 13.9262 0.0308407
27.8834 15.5739 0.781223
27.7974 15.5118 1.52705
27.7279 15.4592 2.26541
27.6747 15.4159 3.004
27.5843 15.358 3.74363
27.4754 15.2833 4.47326
27.4035 15.2295 5.20864
27.3215 15.1765 5.94965
0.498742 0.0333124 -0.360629
0.516337 0.0429911 -0.353878
2.88007 1.37241 -1.77175
3.06214 1.47339 -1.77795
3.26472 1.58569 -1.78621
3.47091 1.69976 -1.78542
3.66553 1.80815 -1.76845
3.84087 1.90457 -1.73188
4.0771 2.03497 -1.71285
4.33406 2.17779 -1.68982
4.61292 2.33172 -1.66019
4.94311 2.51393 -1.63396
5.2893 2.70605 -1.59557
5.67647 2.91956 -1.54902
6.22844 3.22459 -1.52341
6.79095 3.53494 -1.47111
7.59701 4.02729 -1.43701
8.64056 4.61038 -1.39581
10.2191 5.49547 -1.36821
10.2926 5.53182 -1.10059
10.2859 5.5233 -0.824025
10.2657 5.50931 -0.548169
22.3049 12.2503 -0.568507
25.2079 13.865 0.0310282
27.1237 14.9309 0.756647
28.1398 15.4863 1.54073
28.075 15.4367 2.28614
28.0159 15.3905 3.03092
10.3277 5.51465 1.38478
27.8128 15.2571 4.51313
27.7397 15.2032 5.25503
27.6581 15.1511 6.00296
0.500291 0.0309547 -0.360597
0.520987 0.0422152 -0.3558
2.88906 1.35666 -1.77174
3.07329 1.45751 -1.77884
3.27177 1.56603 -1.78449
3.48494 1.68259 -1.78703
3.6641 1.78079 -1.76231
3.84469 1.87894 -1.72825
4.08319 2.00897 -1.71012
4.33263 2.1457 -1.68408
4.62558 2.30536 -1.6596
4.95674 2.48569 -1.63341
5.30915 2.67867 -1.59658
5.69576 2.8891 -1.54949
6.24256 3.1873 -1.52218
6.82408 3.50395 -1.47369
7.63455 3.9929 -1.43958
8.65883 4.55765 -1.39445
10.2475 5.43674 -1.36778
10.2968 5.45919 -1.0977
10.2796 5.44481 -0.82107
10.2575 5.43006 -0.546134
22.5774 12.2381 -0.573595
25.4282 13.8027 0.031185
-0.00388482 -0.249321 -0.0198468
28.4827 15.4701 1.5547
28.4172 15.4206 2.30688
28.3523 15.3714 3.05784
-0.00388482 -0.249321 -0.0198468
28.1402 15.2345 4.55216
28.0729 15.1842 5.30175
27.9918 15.1328 6.05663
0.498959 0.0267159 -0.358533
0.51508 0.0352078 -0.350897
2.90159 1.3416 -1.7736
3.08334 1.43965 -1.77882
3.27455 1.54263 -1.78022
3.49442 1.66193 -1.78621
3.66794 1.755 -1.75846
3.8572 1.8565 -1.72824
4.09945 1.98749 -1.71148
4.35505 2.12488 -1.68726
4.64406 2.28002 -1.66078
4.96907 2.45566 -1.63231
5.32987 2.64933 -1.59759
5.71722 2.85848 -1.55041
6.26231 3.15163 -1.52219
6.85074 3.46777 -1.4748
7.66656 3.95159 -1.44089
8.69684 4.51372 -1.39613
10.2829 5.37713 -1.36805
10.4092 5.44132 -1.10594
10.3788 5.42222 -0.826272
10.3032 5.37614 -0.546798
22.8653 12.2209 -0.578954
25.6474 13.7319 0.0313295
28.9368 15.5112 0.802991
28.8441 15.4471 1.56933
28.7753 15.4027 2.3286
28.7113 15.3545 3.08684
10.2992 5.34482 1.37197
-0.00383805 -0.24898 -0.0198198
28.4077 15.1561 5.34813
28.321 15.0959 6.10806
0.508167 0.0282563 -0.363594
0.504422 0.0260588 -0.343049
2.91697 1.32853 -1.77733
3.09457 1.42306 -1.77971
3.28325 1.52322 -1.77936
3.5102 1.64477 -1.78863
3.66479 1.72628 -1.75155
3.86601 1.83282 -1.72679
4.10726 1.96163 -1.70943
4.36198 2.09647 -1.68472
4.65516 2.25181 -1.6596
4.98283 2.42644 -1.63177
5.16899 2.52393 -1.54526
5.73843 2.82767 -1.55133
6.29214 3.12135 -1.52468
6.88246 3.43414 -1.47702
7.69756 3.91151 -1.44219
8.72589 4.46485 -1.39643
10.3273 5.32474 -1.36968
10.5505 5.4402 -1.11728
10.5044 5.41284 -0.833517
10.4394 5.3729 -0.552125
23.1499 12.204 -0.584264
25.9003 13.677 0.031532
29.2932 15.4874 0.810373
29.1981 15.4227 1.58367
29.1182 15.3728 2.34904
29.0499 15.3227 3.11356
10.2928 5.26514 1.36675
10.2941 5.26337 1.64255
28.7501 15.1283 5.39581
28.6898 15.0828 6.16845
0.50361 0.0224895 -0.359496
0.505948 0.0235299 -0.343021
2.92444 1.31125 -1.77638
3.10415 1.40561 -1.77969
3.3029 1.50982 -1.78446
3.52457 1.62601 -1.79024
3.6663 1.70035 -1.74693
3.88448 1.81436 -1.72968
4.12029 1.93758 -1.70943
4.37713 2.07255 -1.68535
4.66948 2.22536 -1.65959
5.00545 2.4008 -1.63396
5.16611 2.48445 -1.53974
5.76862 2.80033 -1.55454
6.30337 3.07979 -1.52262
6.91282 3.39822 -1.47887
7.73005 3.87213 -1.44381
8.76772 4.42079 -1.39865
10.3611 5.2664 -1.36995
10.6799 5.43108 -1.12734
10.6524 5.41151 -0.842404
10.581 5.37111 -0.557722
23.4632 12.1991 -0.590263
26.1433 13.6086 0.0317112
29.6343 15.4516 0.817298
29.5651 15.4012 1.59869
29.482 15.3436 2.3709
29.413 15.2935 3.14254
10.3807 5.23573 1.37426
10.2759 5.17572 1.63435
29.1272 15.1086 5.4494
29.0193 15.0448 6.22024
0.502229 0.0182142 -0.357437
0.518376 0.0265739 -0.34983
2.9352 1.29507 -1.77731
3.12189 1.39163 -1.78416
3.31816 1.49304 -1.78701
3.53529 1.60605 -1.79024
3.66634 1.67294 -1.74155
3.89336 1.78997 -1.72822
4.13119 1.91325 -1.70875
4.39247 2.04785 -1.68598
4.68071 2.19617 -1.65841
5.01723 2.37049 -1.63287
5.1633 2.44426 -1.53421
-0.00384541 -0.247763 -0.0197245
6.3276 3.04654 -1.52387
6.95295 3.36868 -1.48291
7.76664 3.83299 -1.44607
8.79975 4.37332 -1.3995
10.4024 5.20986 -1.37112
10.8122 5.41974 -1.13759
10.7767 5.39864 -0.849511
10.7239 5.36599 -0.563323
10.993 5.50169 -0.286307
26.5099 13.6081 0.0321341
30.1967 15.5209 0.83035
32.2735 16.5904 1.74124
32.253 16.5721 2.58749
29.7405 15.2483 3.16793
10.524 5.2321 1.38907
10.2824 5.10399 1.63037
29.4796 15.0783 5.49872
29.373 15.0093 6.27651
0.515945 0.022026 -0.365548
0.529278 0.0286929 -0.355669
2.944 1.27856 -1.77729
3.12803 1.37235 -1.78236
3.32325 1.47183 -1.78444
3.54915 1.58767 -1.79185
3.67409 1.65045 -1.74001
3.90006 1.76525 -1.72605
4.14525 1.89066 -1.70942
4.40901 2.02457 -1.68726
4.69642 2.17037 -1.65901
5.03564 2.34371 -1.63396
5.16837 2.40963 -1.53118
5.2076 2.42849 -1.39708
-0.00387247 -0.247325 -0.0196904
6.97722 3.33065 -1.48367
7.79354 3.79036 -1.44674
8.82798 4.32383 -1.3998
10.3843 5.1246 -1.36477
10.9437 5.40894 -1.14784
10.919 5.39355 -0.857988
10.8679 5.36218 -0.569016
11.1059 5.47991 -0.288276
26.7013 13.5132 0.0322115
30.5964 15.5062 0.838863
30.9027 15.6498 1.66126
30.8822 15.6319 2.46907
30.1003 15.2162 3.19671
10.6438 5.21715 1.40083
10.2743 5.02511 1.62413
30.8562 15.569 5.73905
29.7613 14.9941 6.34062
0.512865 0.0171507 -0.362463
2.82986 1.19992 -1.80013
2.96066 1.26593 -1.78196
3.14052 1.35632 -1.78414
3.33468 1.45385 -1.78529
3.56291 1.56922 -1.79346
3.69313 1.63388 -1.74384
3.91491 1.74485 -1.72749
4.15575 1.86633 -1.70873
4.41692 1.99695 -1.68534
4.71022 2.14368 -1.659
5.05385 2.31678 -1.63506
5.18358 2.38017 -1.53119
5.19861 2.38645 -1.39068
5.22827 2.39917 -1.25538
-0.0038257 -0.246984 -0.0196634
7.83422 3.75472 -1.44997
8.86477 4.27866 -1.40148
10.4221 5.06865 -1.36572
11.095 5.40671 -1.1601
11.0545 5.38341 -0.865922
11.0104 5.35603 -0.574617
11.2367 5.46599 -0.290685
27.1547 13.5497 0.0327865
30.9613 15.4694 0.846373
30.8834 15.4158 1.6551
30.8487 15.3909 2.45889
11.08 5.36593 1.16101
10.7815 5.20985 1.41493
10.2657 4.94647 1.61789
30.4961 15.1635 5.655
30.1311 14.9653 6.40063
0.526679 0.0207305 -0.370576
2.82874 1.17928 -1.79426
2.97086 1.25009 -1.78288
3.14971 1.33858 -1.78413
3.35737 1.4415 -1.7921
3.57498 1.54989 -1.79426
3.70064 1.6112 -1.7423
3.92467 1.7218 -1.72676
4.16454 1.84096 -1.70737
4.42807 1.97097 -1.6847
4.72218 2.11602 -1.65841
5.0703 2.28877 -1.63562
5.19171 2.34718 -1.52918
5.19975 2.34986 -1.38702
5.24169 2.36848 -1.25497
5.2669 2.37866 -1.1186
7.86596 3.7143 -1.45159
8.90838 4.23676 -1.40426
10.4508 5.00798 -1.36553
11.2396 5.3993 -1.17164
11.2009 5.37722 -0.874678
11.1587 5.35103 -0.580493
11.3714 5.45255 -0.293179
27.5198 13.5366 0.0331869
24.6553 12.091 0.66788
32.2132 15.8578 1.72196
-0.00385276 -0.246546 -0.0196293
11.0178 5.25522 1.15094
10.907 5.19492 1.42738
10.2725 4.87612 1.61419
30.807 15.0986 5.69611
5.14308 2.31454 1.07374
0.526727 0.0173096 -0.369529
2.82912 1.15938 -1.78937
2.98581 1.23639 -1.78662
3.16195 1.32236 -1.78591
3.36216 1.42006 -1.78953
3.58553 1.52903 -1.79426
3.71291 1.59109 -1.74306
3.93422 1.69874 -1.72603
4.17849 1.81751 -1.70804
4.44415 1.9475 -1.68597
4.74088 2.09166 -1.66019
5.09386 2.26326 -1.63836
5.18222 2.30563 -1.52214
5.21503 2.31938 -1.38702
5.24485 2.33164 -1.25209
5.26471 2.33907 -1.11493
7.90638 3.678 -1.45483
8.93657 4.18509 -1.40456
10.4898 4.95245 -1.36671
11.3844 5.39051 -1.18317
11.3486 5.36766 -0.883427
11.2983 5.34011 -0.585922
11.5242 5.44659 -0.296106
27.8523 13.4972 0.0335136
31.811 15.443 0.864667
32.2016 15.621 1.71618
-0.00380599 -0.246205 -0.0196023
11.1003 5.21468 1.1562
11.0522 5.18843 1.44242
-0.00380599 -0.246205 -0.0196023
-0.00380599 -0.246205 -0.0196023
5.18783 2.29989 1.08009
0.532859 0.0168203 -0.372555
2.83895 1.14373 -1.79033
3.00086 1.22215 -1.79035
3.17122 1.30391 -1.7859
3.38016 1.40441 -1.79379
3.59736 1.5095 -1.79506
3.72214 1.56855 -1.74229
3.94573 1.6757 -1.72603
4.18696 1.79205 -1.70669
4.45712 1.92141 -1.68598
4.75812 2.06553 -1.66138
5.10476 2.2326 -1.63726
5.19379 2.27348 -1.52114
5.21752 2.2837 -1.38382
5.25609 2.30003 -1.25127
5.25655 2.29793 -1.11016
5.26206 2.32773 -0.972249
8.96558 4.1356 -1.40514
10.5258 4.8931 -1.36743
-0.00383306 -0.245767 -0.0195681
11.4812 5.35146 -0.891097
11.4516 5.3319 -0.591982
11.6639 5.43007 -0.298689
28.2098 13.4724 0.0338865
32.1896 15.393 0.872403
32.1479 15.3585 1.70808
32.1007 15.3281 2.53669
11.248 5.20748 1.16846
11.1969 5.17762 1.45723
11.2585 5.20488 1.76061
32.1533 15.3029 5.91132
5.2648 2.2993 1.09316
0.52818 0.0111142 -0.368459
2.83754 1.12317 -1.78446
3.00607 1.20369 -1.78847
3.17363 1.28289 -1.78231
3.38795 1.38447 -1.79293
3.60577 1.48834 -1.79424
3.7308 1.54666 -1.74152
3.95332 1.6517 -1.72457
4.1986 1.76832 -1.70668
4.46949 1.8961 -1.68597
4.77139 2.03843 -1.66138
5.1242 2.20602 -1.63891
5.18731 2.23384 -1.51511
5.22495 2.25064 -1.38199
5.22829 2.24985 -1.24137
5.25511 2.26032 -1.10687
5.26075 2.2901 -0.96936
9.00314 4.09026 -1.40709
10.5553 4.8327 -1.36747
5.30991 2.3078 -0.559443
-0.00386012 -0.245329 -0.019534
5.29217 2.29568 -0.28347
11.81 5.41763 -0.301443
25.7381 12.0881 0.0289301
32.4018 15.2664 0.87561
32.2895 15.1983 1.71069
32.2062 15.1509 2.53779
11.3835 5.19272 1.17939
11.3374 5.16551 1.47156
11.2647 5.12829 1.75662
32.0626 15.032 5.87805
5.25631 2.2583 1.0883
0.531233 0.00920769 -0.369446
2.8469 1.10794 -1.78543
3.01595 1.18746 -1.78939
3.19372 1.27036 -1.78856
3.3989 1.36612 -1.79377
3.62227 1.47101 -1.79748
3.74437 1.52713 -1.74304
3.9625 1.62852 -1.72384
4.21357 1.74602 -1.70804
4.48008 1.86984 -1.68534
4.78615 2.01206 -1.66197
5.12251 2.16949 -1.63398
5.1892 2.1986 -1.51158
5.22866 2.21592 -1.37925
5.23899 2.21845 -1.24055
5.29614 2.24294 -1.11238
5.26096 2.25333 -0.966799
-0.00381335 -0.244988 -0.019507
-0.00381335 -0.244988 -0.019507
5.3372 2.28349 -0.560724
5.30968 2.26922 -0.420565
5.30494 2.26467 -0.283383
11.9871 5.41813 -0.304935
28.7821 13.3435 0.0343522
28.9445 13.4073 0.777756
32.7142 15.1707 1.72847
32.6246 15.1209 2.56375
11.5353 5.18418 1.19201
11.487 5.15628 1.48707
11.2561 5.04519 1.75039
32.1805 14.8615 5.88343
5.25993 2.22342 1.08606
0.527982 0.00435619 -0.366365
2.84987 1.08969 -1.78248
3.02411 1.17047 -1.78938
3.19753 1.25002 -1.78587
3.41635 1.35067 -1.79803
3.6354 1.45208 -1.79909
3.75289 1.50513 -1.74227
3.97833 1.6083 -1.72601
4.22325 1.72137 -1.70735
4.49391 1.84522 -1.68597
4.7991 1.98489 -1.66197
5.12768 2.13619 -1.63125
5.19971 2.16734 -1.51058
5.22684 2.17873 -1.37514
5.23708 2.18122 -1.23684
5.28006 2.19873 -1.10614
5.25024 2.21165 -0.96231
5.33553 2.25029 -0.837612
-0.00384041 -0.24455 -0.0194729
-0.00384041 -0.24455 -0.0194729
-0.00384041 -0.24455 -0.0194729
-0.00384041 -0.24455 -0.0194729
12.1537 5.4118 -0.308168
28.9633 13.2259 0.0343822
28.9266 13.1961 0.774958
33.1431 15.1404 1.74642
33.042 15.0858 2.58957
11.6857 5.17314 1.20444
11.6459 5.1496 1.50375
11.2577 4.96728 1.74583
32.593 14.8269 5.94287
5.26168 2.18759 1.08343
0.523229 -0.00125211 -0.362272
2.85117 1.07072 -1.77856
3.03385 1.15413 -1.79031
3.22067 1.23871 -1.7939
3.4255 1.33136 -1.79802
3.6421 1.42925 -1.79747
3.76118 1.48311 -1.74149
3.98384 1.58344 -1.72383
4.23315 1.69581 -1.70667
4.50582 1.81972 -1.68597
4.81354 1.95843 -1.66256
5.13645 2.10371 -1.6296
5.217 2.13939 -1.51159
5.19864 2.12865 -1.36415
5.2354 2.14309 -1.23314
5.23899 2.1425 -1.09477
5.26973 2.18414 -0.963282
5.35931 2.22301 -0.838998
5.32872 2.2078 -0.694774
5.30625 2.19508 -0.554718
5.30612 2.19271 -0.418122
5.30263 2.18996 -0.281866
5.35127 2.20989 -0.146305
5.32797 2.19679 -0.00959813
-0.00379364 -0.244209 -0.0194459
-0.00379364 -0.244209 -0.0194459
-0.00379364 -0.244209 -0.0194459
11.8391 5.15942 1.21706
11.8051 5.14127 1.52044
11.2542 4.88511 1.74043
10.2444 4.42045 1.8499
5.26307 2.15195 1.08081
0.532465 -0.000458903 -0.367334
2.86054 1.05487 -1.77953
3.0373 1.13426 -1.78749
3.22938 1.21998 -1.79389
3.43638 1.31219 -1.79886
3.65165 1.4087 -1.79746
3.7714 1.46107 -1.74149
3.9997 1.56248 -1.726
4.24082 1.6702 -1.70531
4.51973 1.79408 -1.6866
4.82652 1.93019 -1.66256
5.16744 2.08236 -1.63509
5.28761 2.13408 -1.5277
5.28325 2.13093 -1.38247
5.28478 2.12934 -1.24139
5.31544 2.14079 -1.10762
5.30923 2.1646 -0.96778
9.12845 3.89383 -1.41133
-0.0038207 -0.243771 -0.0194119
-0.0038207 -0.243771 -0.0194119
-0.0038207 -0.243771 -0.0194119
5.33706 2.16783 -0.28286
5.32934 2.16193 -0.145455
-0.0038207 -0.243771 -0.0194119
-0.0038207 -0.243771 -0.0194119
5.29017 2.13844 0.261042
5.31412 2.14807 0.39814
-0.0038207 -0.243771 -0.0194119
-0.0038207 -0.243771 -0.0194119
5.33281 2.15053 0.812602
5.30736 2.13689 0.946834
5.26291 2.11455 1.07782
0.535421 -0.0024394 -0.368323
2.87274 1.04086 -1.78245
3.04839 1.11856 -1.78935
3.23617 1.20096 -1.79299
3.45189 1.29567 -1.80226
3.65606 1.38576 -1.79502
3.77942 1.43901 -1.74071
4.00152 1.53594 -1.72238
4.25516 1.64772 -1.70666
4.52792 1.76687 -1.68533
4.83722 1.90187 -1.66198
5.17547 2.05055 -1.63345
5.349 2.1251 -1.5413
5.33418 2.1174 -1.39209
5.37892 2.13476 -1.25996
5.41906 2.15018 -1.12597
5.3392 2.14168 -0.970666
-0.00377394 -0.24343 -0.0193848
10.7415 4.54597 -1.37316
12.503 5.32567 -1.27362
12.4835 5.31416 -0.952248
-0.00377394 -0.24343 -0.0193848
-0.00377394 -0.24343 -0.0193848
-0.00377394 -0.24343 -0.0193848
-0.00377394 -0.24343 -0.0193848
-0.00377394 -0.24343 -0.0193848
-0.00377394 -0.24343 -0.0193848
-0.00377394 -0.24343 -0.0193848
5.29692 2.09946 0.668133
5.29761 2.09861 0.804999
5.27592 2.08665 0.938635
5.26026 2.07743 1.07445
0.530472 -0.00789016 -0.364224
2.88164 1.02543 -1.78341
3.06101 1.10348 -1.79215
3.2493 1.18488 -1.79566
3.4607 1.2761 -1.80226
3.6537 1.35988 -1.78934
3.79413 1.41979 -1.74301
4.01169 1.51325 -1.72237
4.2608 1.62127 -1.70462
4.54116 1.74181 -1.68597
4.85475 1.87663 -1.66376
5.18679 2.0204 -1.6329
-0.003801 -0.242992 -0.0193507
5.42804 2.12198 -1.4127
5.47866 2.14161 -1.27977
-0.003801 -0.242992 -0.0193507
8.12884 3.33118 -1.46367
-0.003801 -0.242992 -0.0193507
10.7799 4.4892 -1.37457
-0.003801 -0.242992 -0.0193507
12.6287 5.29211 -0.960749
12.5723 5.26195 -0.636692
25.7417 11.0154 -0.625036
-0.003801 -0.242992 -0.0193507
-0.003801 -0.242992 -0.0193507
-0.003801 -0.242992 -0.0193507
-0.003801 -0.242992 -0.0193507
-0.003801 -0.242992 -0.0193507
5.32306 2.07483 0.669778
5.29832 2.06288 0.803022
5.27119 2.04871 0.935356
5.25731 2.04039 1.07108
0.517666 -0.0167736 -0.355043
2.89215 1.01052 -1.78535
3.06708 1.0856 -1.7912
3.25912 1.16721 -1.79655
3.46612 1.25505 -1.80055
3.65949 1.33773 -1.78772
-0.00382806 -0.242554 -0.0193166
4.02515 1.49195 -1.72382
4.27669 1.59925 -1.70666
4.556 1.71754 -1.68724
4.87043 1.85053 -1.66494
5.21033 1.99538 -1.63619
-0.00382806 -0.242554 -0.0193166
5.47735 2.1064 -1.42186
5.49407 2.11112 -1.28019
7.30995 2.88532 -1.50442
-0.00382806 -0.242554 -0.0193166
9.23311 3.75153 -1.41665
10.807 4.42733 -1.37462
12.6706 5.22691 -1.28413
12.8069 5.28289 -0.971698
12.7506 5.253 -0.643938
25.9145 10.9139 -0.627724
-0.00382806 -0.242554 -0.0193166
-0.00382806 -0.242554 -0.0193166
35.4953 14.9995 1.84635
-0.00382806 -0.242554 -0.0193166
12.5168 5.12512 1.27435
-0.00382806 -0.242554 -0.0193166
5.33703 2.0435 0.806952
5.29339 2.02261 0.936994
5.25048 2.00198 1.06697
0.5205 -0.0186936 -0.356032
2.90086 0.994934 -1.78632
3.07309 1.06751 -1.79026
3.26717 1.14875 -1.79654
3.47801 1.23686 -1.80224
3.65539 1.31062 -1.78123
3.7977 1.3702 -1.73609
4.03512 1.46911 -1.72382
4.2875 1.57428 -1.70666
4.57071 1.69303 -1.68852
4.88242 1.82278 -1.66495
5.22182 1.96398 -1.63565
5.49252 2.07715 -1.5705
5.96124 2.2723 -1.54185
-0.00378129 -0.242213 -0.0192896
-0.00378129 -0.242213 -0.0192896
8.15129 3.23032 -1.46051
9.26756 3.70165 -1.41834
10.8428 4.36926 -1.3758
12.7202 5.1619 -1.28602
12.9773 5.26554 -0.981975
12.9255 5.2407 -0.651001
13.3555 5.41733 -0.332201
13.3846 5.42386 0.00467621
-0.00378129 -0.242213 -0.0192896
35.9488 14.9498 1.86534
35.8308 14.8845 2.76504
12.6623 5.09903 1.28602
12.6573 5.09406 1.61041
11.2121 4.48016 1.71147
5.34677 2.00833 0.944191
5.25247 1.96754 1.06473
0.517053 -0.023387 -0.35295
2.90497 0.976709 -1.78435
3.08731 1.05233 -1.79399
3.28198 1.13247 -1.80011
3.48974 1.21857 -1.80394
3.65074 1.28432 -1.77474
3.81233 1.35016 -1.73839
4.04487 1.44626 -1.72381
4.29444 1.54842 -1.7053
4.58354 1.6678 -1.68915
4.89952 1.7972 -1.66673
5.23618 1.935 -1.63621
5.5809 2.07698 -1.59165
-0.00380835 -0.241775 -0.0192554
6.7104 2.54149 -1.5517
7.36732 2.81068 -1.50887
8.18269 3.18674 -1.46246
9.30115 3.65312 -1.42002
10.8755 4.30749 -1.37653
12.7649 5.09214 -1.28735
13.1672 5.25715 -0.99375
13.109 5.22729 -0.658432
13.3768 5.33598 -0.332006
13.3838 5.33321 0.00455971
-0.00380835 -0.241775 -0.0192554
13.3362 5.30474 0.678247
-0.00380835 -0.241775 -0.0192554
12.8391 5.08962 1.30108
12.8383 5.08383 1.62967
11.2062 4.40224 1.70636
-0.00380835 -0.241775 -0.0192554
-0.00380835 -0.241775 -0.0192554
0.495998 -0.0350815 -0.338678
2.91816 0.963523 -1.78825
3.10284 1.03836 -1.79866
3.28629 1.11318 -1.79831
3.49814 1.19883 -1.80393
3.64927 1.25949 -1.76987
3.80777 1.32288 -1.73225
4.04759 1.42045 -1.72091
4.31509 1.52833 -1.70938
4.59304 1.64025 -1.68852
4.90444 1.76558 -1.66436
5.24863 1.90513 -1.63621
5.62685 2.0573 -1.60072
6.0912 2.24434 -1.56751
6.7472 2.50899 -1.55625
7.41081 2.77763 -1.51403
8.19987 3.14064 -1.46216
9.3289 3.60208 -1.42088
10.9191 4.25452 -1.37887
12.8277 5.03472 -1.29069
13.3555 5.24603 -1.00539
13.2882 5.21272 -0.665683
13.3847 5.24929 -0.331508
13.3713 5.23809 0.00441329
13.358 5.22706 0.339599
13.3431 5.21525 0.676835
13.3404 5.21113 1.01247
13.0198 5.07461 1.31634
13.0278 5.07239 1.64987
11.2116 4.32702 1.70294
10.1912 3.90905 1.80771
-0.00376158 -0.241434 -0.0192284
0.457359 -0.0539116 -0.313215
2.92384 0.945342 -1.78727
3.10218 1.01693 -1.79397
3.29447 1.09343 -1.79831
3.51332 1.18113 -1.80734
3.6463 1.23329 -1.76419
3.81529 1.29997 -1.73147
4.05911 1.39746 -1.72163
4.32379 1.50233 -1.7087
4.60202 1.61339 -1.68788
4.92125 1.73978 -1.66614
5.26126 1.87432 -1.63622
5.63815 2.02453 -1.60022
6.10906 2.21097 -1.56844
6.73698 2.46144 -1.55049
7.40431 2.72576 -1.50927
8.22407 3.09226 -1.46284
9.3571 3.54923 -1.42174
10.9464 4.18813 -1.37891
12.8301 4.94463 -1.28783
13.547 5.2313 -1.01717
13.4815 5.19914 -0.673567
13.4448 5.18138 -0.332214
13.3981 5.15673 0.00434023
13.3476 5.13086 0.338394
13.3335 5.12221 0.67465
13.3373 5.11804 1.00969
13.211 5.06437 1.33272
-0.00378865 -0.240996 -0.0191943
12.201 4.64851 1.85043
10.1985 3.84408 1.80472
-0.00378865 -0.240996 -0.0191943
0.434456 -0.0657036 -0.297928
2.93206 0.930002 -1.78823
3.10917 0.999965 -1.79396
3.30687 1.0774 -1.80098
3.51973 1.16059 -1.80648
3.65445 1.21337 -1.76418
3.82386 1.27898 -1.73147
4.06845 1.37445 -1.72163
4.32821 1.47649 -1.70665
4.61438 1.58796 -1.68852
4.93428 1.71255 -1.66673
5.27483 1.84597 -1.63677
5.65651 1.99451 -1.60174
6.1281 2.17932 -1.56982
6.74883 2.42153 -1.54968
7.43229 2.68775 -1.5115
8.24619 3.04814 -1.4635
9.39281 3.50312 -1.42398
10.9876 4.13388 -1.38101
12.87 4.87765 -1.28898
13.7442 5.22212 -1.0295
13.6752 5.1889 -0.681545
26.7734 10.3767 -0.641164
33.1424 12.8947 0.0386969
-0.00374188 -0.240655 -0.0191672
13.4497 5.07941 0.67902
13.4339 5.07025 1.01477
13.3895 5.04706 1.34779
13.2084 4.96993 1.66506
12.1968 4.56835 1.8456
10.2181 3.78412 1.80403
-0.00374188 -0.240655 -0.0191672
0.417785 -0.0747594 -0.28671
2.94358 0.915471 -1.79114
3.12123 0.984301 -1.79676
3.31111 1.0573 -1.79919
3.53108 1.142 -1.80817
3.64747 1.18663 -1.75688
3.83251 1.25729 -1.73147
4.08115 1.35272 -1.72307
4.33802 1.45184 -1.70666
4.62484 1.56165 -1.68852
4.94724 1.68512 -1.66733
5.30107 1.82155 -1.64116
5.67651 1.96501 -1.60377
6.14371 2.14513 -1.57029
6.76036 2.38153 -1.54887
7.45262 2.64673 -1.51225
8.26321 3.00021 -1.46321
9.42711 3.45438 -1.42594
11.0182 4.07303 -1.38175
12.9364 4.81829 -1.29269
13.9613 5.21585 -1.04319
13.8794 5.17794 -0.689972
26.9441 10.2655 -0.643862
-0.00376894 -0.240217 -0.0191331
38.8801 14.8938 1.01708
38.7909 14.8428 1.98935
38.751 14.8188 2.95578
13.5905 5.03644 1.36511
13.2011 4.87978 1.66029
12.1874 4.484 1.83991
11.1961 4.09519 1.97392
37.8392 14.3926 7.69317
0.410693 -0.0799179 -0.281591
2.95203 0.89892 -1.79212
3.12675 0.965535 -1.79581
3.32207 1.03933 -1.80097
3.54071 1.12265 -1.80902
3.65583 1.16533 -1.75688
3.84308 1.23557 -1.73223
4.09204 1.33017 -1.7238
4.34795 1.42651 -1.70665
4.63688 1.53613 -1.68915
4.95826 1.65693 -1.66734
5.30064 1.78559 -1.63733
5.68547 1.93134 -1.60276
6.16321 2.11105 -1.57168
6.7772 2.34367 -1.5493
7.47652 2.60694 -1.51373
8.28963 2.95434 -1.46452
9.46001 3.40302 -1.42762
11.0547 4.01223 -1.38316
12.9923 4.75174 -1.29531
14.1649 5.19901 -1.0558
14.0866 5.16313 -0.698491
27.1424 10.1633 -0.647223
28.8727 10.8143 0.030671
28.7857 10.769 0.746148
39.1645 14.7292 2.00396
39.0261 14.66 2.96981
13.7844 5.02087 1.38168
-0.003796 -0.239779 -0.0190991
12.1894 4.40205 1.83591
11.2025 4.02394 1.9706
38.7293 14.481 7.85689
0.421284 -0.0781727 -0.287667
2.96158 0.88405 -1.79406
3.14166 0.951567 -1.80048
3.33251 1.02236 -1.80275
3.55186 1.10391 -1.81072
3.66384 1.14468 -1.75687
3.85291 1.21514 -1.73299
4.1045 1.30826 -1.72525
4.36282 1.40371 -1.7087
4.6506 1.51102 -1.69044
4.97804 1.63209 -1.6703
5.31577 1.75677 -1.63843
5.70335 1.90095 -1.60428
6.18214 2.07792 -1.57306
6.79791 2.30574 -1.55056
7.50064 2.56564 -1.51523
8.30736 2.90836 -1.46454
8.98239 3.16026 -1.35364
-0.00374923 -0.239438 -0.0190721
-0.00374923 -0.239438 -0.0190721
-0.00374923 -0.239438 -0.0190721
14.2979 5.15303 -0.707287
27.3254 10.0536 -0.650234
28.7525 10.5791 0.0301834
28.7832 10.5844 0.744288
39.7477 14.6904 2.02934
39.6213 14.6265 3.00853
13.9907 5.005 1.39937
14.1167 5.04915 1.76872
12.1899 4.32239 1.83191
11.1944 3.9453 1.96466
38.8191 14.2599 7.85777
0.415843 -0.0827684 -0.283573
2.96818 0.866791 -1.79405
3.14869 0.933245 -1.80048
3.33651 1.00176 -1.80095
3.55972 1.08316 -1.81072
3.67008 1.12325 -1.75606
3.85975 1.19201 -1.73222
4.10663 1.2817 -1.72234
4.3651 1.37636 -1.70597
4.65738 1.48243 -1.68916
4.97654 1.59823 -1.66616
5.3254 1.7258 -1.63789
5.71777 1.86802 -1.6048
6.19904 2.04399 -1.57399
6.82163 2.27031 -1.55264
7.5167 2.52269 -1.51525
8.32776 2.85999 -1.4649
8.97769 3.09986 -1.35009
-0.00377629 -0.239 -0.019038
-0.00377629 -0.239 -0.019038
8.95426 3.08175 -0.671766
-0.00377629 -0.239 -0.019038
-0.00377629 -0.239 -0.019038
-0.00377629 -0.239 -0.019038
8.95417 3.06863 0.21792
40.3492 14.644 2.0555
40.2118 14.5845 3.0468
14.2039 4.992 1.41782
14.1945 4.98271 1.77454
-0.00377629 -0.239 -0.019038
11.1795 3.86684 1.95774
39.4414 14.2264 7.96619
0.415007 -0.0853251 -0.282525
2.97616 0.850653 -1.79502
3.15204 0.9143 -1.79859
3.35034 0.985353 -1.80452
3.56906 1.06359 -1.81156
3.683 1.10437 -1.75848
3.87142 1.17135 -1.73375
4.11531 1.25834 -1.72234
4.37612 1.35221 -1.70665
4.67078 1.45722 -1.69044
4.98519 1.56927 -1.66557
5.33845 1.69612 -1.63844
5.72614 1.83421 -1.60379
6.22488 2.01318 -1.57721
6.8489 2.23596 -1.55555
7.5473 2.48504 -1.51821
8.34364 2.81166 -1.4646
8.97257 3.03961 -1.34654
8.97624 3.03724 -1.11973
8.96164 3.02811 -0.893923
8.95829 3.02496 -0.670711
-0.00372953 -0.238659 -0.019011
-0.00372953 -0.238659 -0.019011
-0.00372953 -0.238659 -0.019011
-0.00372953 -0.238659 -0.019011
-0.00372953 -0.238659 -0.019011
-0.00372953 -0.238659 -0.019011
-0.00372953 -0.238659 -0.019011
-0.00372953 -0.238659 -0.019011
9.50021 3.1926 1.41745
11.1696 3.79058 1.95179
40.0233 14.179 8.06677
0.406241 -0.0909105 -0.276397
2.98727 0.835655 -1.79794
3.16034 0.897021 -1.79953
3.354 0.965107 -1.80273
3.57643 1.04338 -1.81156
3.69433 1.08407 -1.7601
3.88641 1.15194 -1.73681
4.12208 1.23439 -1.72162
4.38191 1.32533 -1.70529
4.68217 1.43136 -1.69108
4.99375 1.54023 -1.66498
5.34615 1.66349 -1.63736
5.73986 1.80212 -1.60431
6.24365 1.97854 -1.5786
6.85789 2.19369 -1.55433
7.56519 2.44121 -1.5186
8.36663 2.76592 -1.46559
8.96954 2.97865 -1.34327
8.9669 2.97578 -1.11633
8.95591 2.96809 -0.891579
8.95685 2.96474 -0.669241
8.9504 2.96056 -0.447296
8.9642 2.96178 -0.224955
8.97316 2.96125 -0.00388516
8.94655 2.94981 0.216662
-0.00375659 -0.238221 -0.0189768
-0.00375659 -0.238221 -0.0189768
-0.00375659 -0.238221 -0.0189768
-0.00375659 -0.238221 -0.0189768
-0.00375659 -0.238221 -0.0189768
-0.00375659 -0.238221 -0.0189768
-0.00375659 -0.238221 -0.0189768
0.405454 -0.0934305 -0.275344
3.00185 0.821139 -1.80281
3.16697 0.878708 -1.79951
3.36616 0.947363 -1.8054
3.59081 1.02492 -1.81496
3.69847 1.06189 -1.75847
3.88942 1.12732 -1.73451
4.13602 1.21212 -1.72379
4.39796 1.30286 -1.70802
4.69021 1.40332 -1.69044
5.0024 1.51036 -1.66439
5.3552 1.63238 -1.63682
5.7537 1.76905 -1.60483
6.2618 1.94483 -1.57999
6.8718 2.15449 -1.55434
7.5823 2.39863 -1.51899
8.3973 2.7212 -1.46787
8.96175 2.91804 -1.33946
8.96708 2.91627 -1.11408
8.95597 2.90868 -0.889783
8.95637 2.9068 -0.667913
8.95045 2.90105 -0.446434
8.96609 2.90294 -0.224598
8.965 2.90063 -0.00396009
8.94077 2.88844 0.215984
8.94564 2.88641 0.43807
8.94319 2.88367 0.658676
8.9402 2.87896 0.879753
8.94529 2.87708 1.1043
8.91327 2.86395 1.32308
-0.00370982 -0.23788 -0.0189498
-0.00370982 -0.23788 -0.0189498
0.407919 -0.0948625 -0.276336
3.01776 0.807706 -1.80866
3.17501 0.861379 -1.80044
3.37287 0.928341 -1.8054
3.5946 1.00339 -1.81325
3.70761 1.04156 -1.75928
3.8884 1.10229 -1.73067
4.13724 1.18625 -1.72089
4.40498 1.27726 -1.70734
4.70854 1.3797 -1.69363
5.01059 1.4812 -1.66381
5.36225 1.60062 -1.63573
5.7633 1.73559 -1.60433
6.27981 1.911 -1.58137
6.88919 2.11646 -1.55519
7.60667 2.35846 -1.52085
8.42164 2.67574 -1.46918
8.96103 2.86027 -1.33673
8.96067 2.85647 -1.11114
8.94757 2.84831 -0.887258
8.9554 2.8491 -0.666575
8.9438 2.84135 -0.445296
8.96138 2.84369 -0.22412
8.95643 2.84016 -0.00403988
8.93406 2.82881 0.215309
8.94076 2.82745 0.436885
8.93464 2.82337 0.656644
8.93733 2.82068 0.877645
8.94251 2.81875 1.10167
8.90853 2.80526 1.31967
8.91892 2.8052 1.5451
8.92393 2.80314 1.77333
-0.00376394 -0.237004 -0.0188817
3.03037 0.792851 -1.81256
3.19298 0.847417 -1.80699
3.37619 0.908141 -1.8036
3.59996 0.982511 -1.81239
3.71683 1.02051 -1.76008
3.89612 1.0802 -1.73067
4.1472 1.16331 -1.72161
4.40676 1.24906 -1.70461
4.70343 1.34808 -1.68853
5.02218 1.45334 -1.6644
5.36763 1.56726 -1.63409
5.77821 1.70399 -1.60535
6.29247 1.87406 -1.58139
6.91233 2.07905 -1.55727
7.62007 2.313 -1.52051
8.4439 2.62944 -1.47017
8.95675 2.79976 -1.33347
8.95957 2.79875 -1.10888
8.94447 2.79001 -0.885284
8.94714 2.78719 -0.664709
8.94438 2.7844 -0.444516
8.95811 2.78538 -0.223674
8.95376 2.7802 -0.00411458
8.93451 2.77186 0.214826
8.93372 2.76793 0.435598
8.92993 2.76304 0.6549
8.93458 2.76095 0.875531
8.9317 2.75806 1.09811
8.90581 2.74578 1.31655
8.9088 2.74313 1.54015
8.91517 2.74336 1.76808
0.409549 -0.0988514 -0.276276
-0.00371718 -0.236663 -0.0188545
3.19775 0.82823 -1.80604
3.38631 0.889549 -1.80538
3.61377 0.964386 -1.8158
3.72573 0.999994 -1.76089
3.90554 1.05808 -1.73143
4.11799 1.12751 -1.70639
-0.00371718 -0.236663 -0.0188545
-0.00371718 -0.236663 -0.0188545
-0.00371718 -0.236663 -0.0188545
-0.00371718 -0.236663 -0.0188545
5.78928 1.67108 -1.60536
6.31378 1.84113 -1.5837
6.9288 2.04202 -1.55811
7.64918 2.2756 -1.52347
8.47016 2.5827 -1.47181
8.95153 2.74098 -1.33019
8.95483 2.73839 -1.10617
8.94152 2.7303 -0.883311
8.94363 2.72908 -0.663238
8.95072 2.72787 -0.444009
8.95643 2.72781 -0.223272
8.9482 2.72141 -0.00418332
8.93141 2.71222 0.214246
8.93188 2.7105 0.434601
8.92627 2.70505 0.6533
8.93044 2.70447 0.87342
8.92806 2.70015 1.09549
8.90031 2.68728 1.31313
8.91222 2.68935 1.53783
8.9136 2.68619 1.76431
0.411965 -0.10032 -0.277273
0.415999 -0.0991462 -0.265995
3.21203 0.813475 -1.81072
3.39595 0.872118 -1.80716
3.61724 0.942774 -1.81409
3.73107 0.978334 -1.76008
3.90926 1.03544 -1.72989
4.11693 1.10123 -1.70277
4.11947 1.10039 -1.58882
4.13887 1.10574 -1.4827
4.12173 1.09851 -1.36446
-0.00374424 -0.236225 -0.0188205
-0.00374424 -0.236225 -0.0188205
-0.00374424 -0.236225 -0.0188205
-0.00374424 -0.236225 -0.0188205
7.68077 2.23596 -1.5268
8.49706 2.53939 -1.47376
8.94973 2.68362 -1.32747
8.95237 2.68256 -1.10391
8.93907 2.67451 -0.881514
8.93771 2.67051 -0.661632
8.9406 2.66951 -0.442781
8.94862 2.6685 -0.222743
8.94611 2.66403 -0.00424451
8.92485 2.65532 0.213626
8.92593 2.65196 0.433412
8.92785 2.64901 0.652124
8.9155 2.64138 0.870176
8.93355 2.64526 1.09404
8.89254 2.62846 1.30944
8.91444 2.63191 1.53518
8.91344 2.62975 1.76092
0.414381 -0.10179 -0.278256
0.413466 -0.102295 -0.264013
3.21818 0.794792 -1.81071
3.40581 0.853475 -1.80894
3.62927 0.923376 -1.81664
3.7328 0.955498 -1.75764
3.91319 1.01142 -1.72836
4.1283 1.07833 -1.70421
4.12354 1.07588 -1.58746
4.13775 1.07868 -1.47951
4.12589 1.07331 -1.36327
4.10351 1.06532 -1.247
4.1208 1.06914 -1.14415
4.11909 1.06766 -1.03627
-0.00369747 -0.235884 -0.0187935
-0.00369747 -0.235884 -0.0187935
8.53405 2.49589 -1.47733
8.94942 2.62696 -1.32503
8.94876 2.62307 -1.10143
8.93339 2.61454 -0.879353
8.92959 2.61148 -0.659889
8.93674 2.6101 -0.441824
8.94284 2.60843 -0.222256
8.94172 2.60613 -0.00431203
8.92287 2.59653 0.213091
8.92388 2.5933 0.432419
8.91772 2.58949 0.650099
8.92249 2.5873 0.869197
8.92395 2.58425 1.09071
8.89188 2.5722 1.30688
8.90447 2.57255 1.53056
8.91163 2.57117 1.75715
0.410295 -0.105433 -0.275181
0.420903 -0.102189 -0.26789
3.22235 0.776079 -1.80976
3.41031 0.833629 -1.80804
3.62731 0.900055 -1.81237
3.74478 0.936053 -1.76007
3.92207 0.989804 -1.72912
4.14646 1.0582 -1.70856
4.1418 1.05581 -1.59154
4.16152 1.06031 -1.48524
4.15712 1.05724 -1.37098
4.11827 1.04429 -1.2492
4.1227 1.04405 -1.14264
4.12464 1.04373 -1.03581
4.11846 1.04016 -0.92903
4.13425 1.04342 -0.827892
-0.00372453 -0.235446 -0.0187594
-0.00372453 -0.235446 -0.0187594
-0.00372453 -0.235446 -0.0187594
8.93063 2.55744 -0.87756
8.92874 2.55496 -0.658697
8.93011 2.5518 -0.440774
8.9343 2.54947 -0.221727
8.93314 2.5472 -0.00438557
8.91995 2.53948 0.212561
8.91715 2.53508 0.431231
8.91294 2.53187 0.648494
8.91195 2.52798 0.866522
8.92114 2.52726 1.08833
8.89092 2.51602 1.30431
8.90165 2.51577 1.52726
8.91263 2.51559 1.75413
0.412637 -0.106805 -0.276162
0.430015 -0.101659 -0.272746
3.22813 0.757884 -1.80975
3.41987 0.815377 -1.80983
3.63373 0.879586 -1.81237
3.75322 0.915334 -1.76088
3.93085 0.968116 -1.72988
4.1646 1.03791 -1.71291
-0.00362917 -0.235069 -0.0187285
4.75825 1.21628 -1.69238
5.09826 1.31786 -1.67391
4.15129 1.0288 -1.25687
-0.00362917 -0.235069 -0.0187285
-0.00362917 -0.235069 -0.0187285
4.14073 1.02139 -0.932326
4.13596 1.01821 -0.826791
4.1042 1.02729 -0.718027
-0.00362917 -0.235069 -0.0187285
4.1164 1.02856 -0.515242
8.92371 2.4993 -0.875402
8.93516 2.50094 -0.658046
8.93266 2.49652 -0.440182
8.93295 2.49309 -0.221368
8.93558 2.49204 -0.00443547
8.91854 2.48326 0.21209
8.91199 2.4776 0.430137
8.91539 2.47679 0.647464
8.91636 2.47348 0.865356
8.91791 2.47042 1.08594
8.88584 2.45874 1.30118
8.89471 2.45791 1.5233
8.90395 2.45709 1.74924
0.411753 -0.109398 -0.275124
0.422387 -0.106289 -0.267834
3.23883 0.741183 -1.81255
3.43271 0.798056 -1.8134
3.63317 0.856933 -1.80895
3.75274 0.891986 -1.75763
3.93239 0.944223 -1.72758
4.17177 1.01432 -1.71291
-0.00365623 -0.234631 -0.0186943
4.76109 1.18757 -1.69047
-0.00365623 -0.234631 -0.0186943
-0.00365623 -0.234631 -0.0186943
5.84767 1.50602 -1.60692
6.43066 1.67808 -1.59843
4.19855 1.0129 -0.943474
-0.00365623 -0.234631 -0.0186943
4.11892 1.00632 -0.719307
4.14321 1.01269 -0.620566
4.09508 0.996553 -0.511813
8.91453 2.4408 -0.873056
8.92787 2.44286 -0.656445
8.92147 2.43735 -0.438954
8.93326 2.43736 -0.221054
8.93011 2.43455 -0.00450375
8.91492 2.42644 0.211559
8.91792 2.42375 0.429626
8.90216 2.41723 0.645294
8.90893 2.41558 0.863054
8.90862 2.41193 1.08284
8.88977 2.40453 1.29946
8.88935 2.40077 1.51966
8.90237 2.40111 1.74585
0.410796 -0.111894 -0.274079
0.426551 -0.107435 -0.269765
3.24955 0.724347 -1.81536
3.43682 0.778219 -1.8125
3.63244 0.834305 -1.80553
3.75943 0.870036 -1.75763
3.94086 0.922448 -1.72834
4.17356 0.989091 -1.71073
4.46688 1.07316 -1.70598
4.7655 1.15948 -1.68919
5.08467 1.25067 -1.66384
5.44179 1.35274 -1.63579
5.85201 1.4711 -1.60542
-0.00368329 -0.234193 -0.0186602
-0.00368329 -0.234193 -0.0186602
-0.00368329 -0.234193 -0.0186602
4.16397 0.994056 -0.725733
4.14669 0.987332 -0.620015
4.11354 0.97674 -0.51318
8.89733 2.38015 -0.869989
8.89377 2.3756 -0.65293
8.91946 2.3812 -0.438178
8.92742 2.38001 -0.220612
8.92658 2.37623 -0.00457065
8.90519 2.36806 0.210879
8.90621 2.36483 0.428243
8.90248 2.36023 0.644119
8.90536 2.35752 0.861137
8.9085 2.35649 1.08093
8.88066 2.34484 1.29577
8.88585 2.34286 1.51636
8.90044 2.34518 1.74246
0.421439 -0.111031 -0.280152
0.432266 -0.108097 -0.272665
3.26365 0.707912 -1.82003
3.44792 0.75966 -1.81517
3.63695 0.812624 -1.80467
3.76397 0.848224 -1.75681
3.94582 0.898963 -1.72757
4.18437 0.965612 -1.71219
4.47614 1.0483 -1.70666
4.77009 1.13045 -1.68793
5.10069 1.22293 -1.66622
5.45271 1.32221 -1.63635
5.8788 1.44142 -1.60997
6.41135 1.59179 -1.58838
7.05334 1.77168 -1.5665
7.7771 1.97419 -1.52989
-0.00363652 -0.233852 -0.0186332
8.9258 2.33863 -1.31033
-0.00363652 -0.233852 -0.0186332
8.92222 2.33047 -0.870932
8.89141 2.31977 -0.651731
8.9079 2.32098 -0.436941
8.92547 2.3224 -0.220255
8.92419 2.32016 -0.00463212
8.90318 2.31062 0.210403
8.90421 2.30742 0.427349
8.90578 2.30595 0.643228
8.89719 2.29998 0.858838
8.89892 2.29686 1.07783
8.88201 2.29022 1.29377
8.88542 2.2877 1.51371
8.89289 2.28627 1.73794
0.418881 -0.114052 -0.27809
0.427937 -0.111609 -0.269704
3.27068 0.689976 -1.82096
3.4536 0.740166 -1.81517
3.63074 0.788556 -1.7987
3.77558 0.827736 -1.75924
3.95055 0.876079 -1.7268
4.19117 0.941898 -1.71218
4.48187 1.02157 -1.70598
4.77242 1.10181 -1.68602
5.11452 1.19548 -1.668
5.46177 1.29023 -1.63635
5.88831 1.40793 -1.60998
6.42959 1.55617 -1.59022
7.07275 1.73217 -1.56818
7.80521 1.93264 -1.53285
-0.00366358 -0.233414 -0.0185992
-0.00366358 -0.233414 -0.0185992
-0.00366358 -0.233414 -0.0185992
8.91196 2.27238 -0.868589
8.89105 2.26301 -0.650673
8.91094 2.26669 -0.436438
8.92075 2.26591 -0.219855
8.91995 2.26207 -0.00470131
8.89657 2.25368 0.209823
8.89561 2.24994 0.426156
8.90534 2.24914 0.642055
8.89866 2.24372 0.857479
8.90181 2.24277 1.07639
8.87399 2.2315 1.29036
8.88695 2.23155 1.51138
8.89402 2.23169 1.7353
0.422826 -0.115205 -0.280095
0.423681 -0.115219 -0.266748
3.27612 0.670909 -1.82095
3.46445 0.721422 -1.81785
3.64012 0.768923 -1.80041
3.77631 0.804906 -1.7568
3.95885 0.853408 -1.72757
4.20323 0.919578 -1.71436
4.48537 0.995085 -1.70462
4.77815 1.07416 -1.68538
5.11524 1.16435 -1.66564
5.47233 1.25958 -1.63691
5.91639 1.37942 -1.61503
6.43983 1.5194 -1.59025
7.08924 1.69456 -1.56944
7.81344 1.88829 -1.53214
8.71793 2.17123 -1.49104
-0.00361682 -0.233073 -0.018572
-0.00361682 -0.233073 -0.018572
8.92093 2.21816 -0.868081
8.88412 2.2063 -0.649205
8.90832 2.20931 -0.435666
8.91959 2.2106 -0.219543
8.91487 2.2058 -0.00475923
8.89765 2.19751 0.209442
8.89825 2.19589 0.425549
8.88679 2.18924 0.639599
8.89891 2.19067 0.856126
8.89874 2.1871 1.07424
8.86896 2.17546 1.28751
8.8797 2.1765 1.50775
8.88536 2.17455 1.73078
0.421868 -0.117701 -0.279054
0.424325 -0.11719 -0.266719
3.28446 0.653881 -1.82282
3.46977 0.702416 -1.81784
3.64229 0.747401 -1.79869
3.78755 0.784906 -1.75923
3.96838 0.832647 -1.7291
4.20802 0.895203 -1.71363
4.49422 0.970058 -1.70531
4.78929 1.048 -1.68666
5.12511 1.13563 -1.66625
5.48453 1.22945 -1.63802
5.91062 1.34169 -1.61101
6.45543 1.48419 -1.59163
7.10999 1.65535 -1.57152
7.83725 1.84526 -1.53437
8.75223 2.12845 -1.49461
8.91578 2.16908 -1.30272
8.91214 2.16625 -1.08269
8.91139 2.16248 -0.865918
8.8788 2.1502 -0.647879
8.89096 2.15158 -0.434256
8.91231 2.15384 -0.219099
8.9037 2.14796 -0.00483873
8.89177 2.14297 0.208915
8.89474 2.14026 0.424646
8.87557 2.13165 0.63771
8.89973 2.13454 0.854766
8.89141 2.13053 1.07162
8.86545 2.12011 1.28494
8.87478 2.11905 1.50444
8.88206 2.11911 1.72739
0.424212 -0.119379 -0.280042
0.438487 -0.115828 -0.274512
3.28458 0.633331 -1.82001
3.47871 0.68307 -1.81963
3.6498 0.726594 -1.79954
3.79332 0.763476 -1.75923
3.96926 0.808101 -1.72679
4.21282 0.870215 -1.7129
4.50108 0.944545 -1.70531
4.79498 1.0194 -1.68603
5.12757 1.10418 -1.66447
5.48916 1.19724 -1.63693
5.92734 1.30893 -1.61304
6.47276 1.44927 -1.59348
7.12644 1.61617 -1.57279
7.85672 1.80241 -1.53587
8.78517 2.08184 -1.49786
8.91611 2.11447 -1.30083
8.91278 2.11006 -1.08113
8.90815 2.10533 -0.86431
-0.00359711 -0.232294 -0.018511
8.89142 2.09563 -0.433657
8.90696 2.09625 -0.218696
8.90176 2.093 -0.00489179
8.88061 2.08395 0.208239
8.88937 2.08276 0.42365
8.87555 2.0773 0.636678
8.89393 2.07862 0.852847
8.88993 2.07406 1.0697
8.85589 2.06344 1.28154
8.87099 2.06382 1.50146
8.87875 2.06227 1.72399
0.433182 -0.119249 -0.285099
0.427337 -0.120977 -0.26764
3.29632 0.616569 -1.82374
3.48393 0.663377 -1.81962
3.64625 0.704365 -1.79527
3.79538 0.741103 -1.7576
3.97518 0.785558 -1.72679
4.22252 0.847892 -1.71436
4.50956 0.919393 -1.70599
4.80366 0.993473 -1.68667
5.13871 1.07679 -1.66566
5.51033 1.16923 -1.64078
5.93771 1.27659 -1.61356
6.48418 1.41281 -1.59396
7.14998 1.58005 -1.5757
7.87743 1.7613 -1.53773
8.82511 2.0385 -1.50238
8.91028 2.0585 -1.29811
8.90492 2.05364 -1.07865
8.91759 2.05333 -0.86398
8.89989 2.04697 -0.647538
8.88725 2.0403 -0.432877
8.90821 2.04386 -0.218467
8.90151 2.03856 -0.00494745
8.88021 2.02973 0.207865
8.8886 2.02997 0.422944
8.88481 2.02552 0.636359
8.87394 2.02091 0.849605
8.88539 2.02035 1.06755
8.85749 2.00976 1.27981
8.86461 2.00972 1.49816
8.87617 2.00919 1.72098
0.427151 -0.123064 -0.281007
0.431281 -0.122136 -0.269567
3.29778 0.597098 -1.82186
3.49232 0.645154 -1.82141
3.65337 0.684181 -1.79612
3.801 0.719563 -1.7576
3.98105 0.762978 -1.72679
4.22864 0.823966 -1.71435
4.51068 0.892433 -1.70395
4.82373 0.968506 -1.69114
5.14819 1.04716 -1.66626
5.50339 1.13412 -1.6364
5.94284 1.24078 -1.61256
6.49763 1.37563 -1.59489
7.16088 1.53671 -1.57572
7.9064 1.71905 -1.54107
8.83383 1.98855 -1.50178
8.90791 2.00367 -1.29594
8.90217 2.00039 -1.07684
8.90703 1.9981 -0.861814
8.90121 1.9932 -0.646746
8.89245 1.98752 -0.432548
8.90373 1.98847 -0.218113
8.90669 1.98565 -0.0049953
8.87568 1.97452 0.207384
8.87472 1.97078 0.421562
8.87446 1.96889 0.634615
8.88718 1.96859 0.849573
8.8813 1.9636 1.0654
8.85718 1.95418 1.27781
8.8643 1.95417 1.49584
8.8722 1.95263 1.71759
0.427771 -0.125207 -0.280972
0.431975 -0.124377 -0.269537
3.30603 0.578771 -1.82372
3.49934 0.624593 -1.8223
3.64994 0.660667 -1.79185
3.80653 0.697336 -1.7576
3.9886 0.740192 -1.72756
4.23121 0.798303 -1.71291
4.51544 0.865574 -1.70327
4.81949 0.938409 -1.68732
5.1573 1.01833 -1.66686
5.50771 1.1009 -1.63531
5.96059 1.20914 -1.61509
6.50488 1.33809 -1.59445
7.18019 1.49931 -1.57781
7.92128 1.6748 -1.54183
8.84728 1.93485 -1.50182
8.90375 1.94684 -1.2935
8.90207 1.94303 -1.07528
8.9127 1.94212 -0.861119
8.90458 1.93825 -0.646106
8.88997 1.93118 -0.43187
8.90318 1.93256 -0.217851
8.8963 1.92748 -0.00506437
8.87309 1.91833 0.206949
8.87567 1.91714 0.42095
8.87577 1.9137 0.633723
8.88424 1.9139 0.848023
8.87257 1.90765 1.06278
8.85428 1.89973 1.27552
8.86338 1.90015 1.49351
8.8732 1.89899 1.71531
0.431742 -0.126494 -0.282985
0.434318 -0.126058 -0.270489
3.32427 0.56385 -1.83122
3.50759 0.606259 -1.82408
3.64961 0.639326 -1.78929
3.80807 0.675645 -1.75597
3.99395 0.718295 -1.72755
4.2387 0.775476 -1.71363
4.52694 0.842051 -1.70531
4.83519 0.914017 -1.69051
5.16422 0.989795 -1.66687
5.52062 1.07181 -1.63697
5.97042 1.17671 -1.6156
6.52496 1.30471 -1.59722
7.19543 1.46091 -1.57907
7.94517 1.63401 -1.54443
8.86689 1.88763 -1.50313
8.90033 1.89382 -1.29133
8.8967 1.88945 -1.07325
8.89957 1.88661 -0.858779
8.89134 1.88285 -0.644362
8.89797 1.88101 -0.431716
8.90928 1.88186 -0.217746
8.90631 1.87762 -0.00510247
8.8713 1.86596 0.206577
8.86806 1.86331 0.419957
8.86816 1.8599 0.632269
8.88059 1.86098 0.846483
8.87082 1.85527 1.0611
8.85061 1.847 1.27324
8.85789 1.84685 1.49053
8.86967 1.84626 1.7123
0.435663 -0.127819 -0.284993
0.434865 -0.128103 -0.270456
3.33222 0.545913 -1.83308
3.51579 0.587275 -1.82586
3.65115 0.617321 -1.78757
3.81166 0.652958 -1.75516
4.00302 0.696417 -1.72909
4.24465 0.750655 -1.71363
4.53138 0.815105 -1.70464
4.84007 0.885264 -1.68987
5.16953 0.959064 -1.66629
5.5245 1.03857 -1.63588
5.97681 1.14111 -1.61512
6.53776 1.26718 -1.59815
7.15217 1.40514 -1.56752
7.95642 1.58586 -1.54445
8.88088 1.8373 -1.50349
8.89736 1.83776 -1.28916
8.88951 1.83401 -1.071
8.89414 1.83164 -0.857167
8.88627 1.82634 -0.64317
8.89246 1.82604 -0.430938
8.90996 1.82657 -0.217524
8.90894 1.82292 -0.00514656
8.87938 1.81419 0.206437
8.88812 1.81278 0.420305
8.88045 1.80763 0.632237
8.88741 1.80566 0.845876
8.8715 1.80025 1.05965
8.8474 1.79124 1.27095
8.8589 1.79044 1.48853
8.86275 1.78948 1.70852
0.431233 -0.13111 -0.281906
0.43551 -0.13038 -0.270433
3.3436 0.528108 -1.83681
3.52754 0.568356 -1.82944
3.65786 0.596363 -1.78843
3.80954 0.629747 -1.75191
4.00843 0.673026 -1.72909
4.25223 0.7262 -1.71436
4.53733 0.789365 -1.70464
4.84658 0.856869 -1.68988
5.18017 0.929595 -1.66748
5.53734 1.00836 -1.63754
5.97913 1.10481 -1.61362
6.55001 1.23078 -1.59908
6.76991 1.27711 -1.48288
7.9802 1.5433 -1.54706
8.89109 1.7845 -1.5032
8.89365 1.78329 -1.28699
8.89185 1.77947 -1.06988
8.89651 1.77698 -0.856289
8.88434 1.77239 -0.642249
8.88898 1.77 -0.430257
8.90644 1.77053 -0.21721
8.90893 1.76927 -0.00520029
8.87573 1.75841 0.206014
8.88259 1.75639 0.419401
8.88235 1.75457 0.631487
8.89121 1.75313 0.845093
8.87948 1.74704 1.05914
8.85118 1.73888 1.26979
8.85303 1.73593 1.48556
8.85347 1.73261 1.70439
0.426803 -0.1344 -0.27883
0.446275 -0.13021 -0.276265
3.3531 0.510346 -1.83962
3.53557 0.54909 -1.83123
3.65724 0.574493 -1.78586
3.81974 0.609409 -1.75434
4.01533 0.650677 -1.72986
4.25939 0.702502 -1.71508
4.54307 0.763612 -1.70464
4.85461 0.829678 -1.69053
5.17366 0.897289 -1.66333
5.54249 0.976427 -1.637
5.99054 1.07146 -1.61464
6.55837 1.19334 -1.5991
6.7536 1.2331 -1.47753
-0.00356505 -0.229519 -0.0182936
8.89092 1.73105 -1.50131
8.8897 1.72895 -1.28482
8.8878 1.72508 -1.06809
8.88844 1.72183 -0.854491
8.88204 1.71863 -0.641321
8.88869 1.71657 -0.429748
8.89827 1.71526 -0.216811
8.9066 1.71525 -0.00525948
8.8675 1.70331 0.205483
8.88215 1.70307 0.418796
8.87606 1.69993 0.630171
8.885 1.69843 0.84336
8.88109 1.6941 1.05793
8.83915 1.68324 1.26639
8.84108 1.68024 1.4816
8.85502 1.67983 1.70249
0.434051 -0.135041 -0.282874
0.440002 -0.133891 -0.27233
3.35562 0.490986 -1.83868
3.54528 0.530241 -1.8339
3.66539 0.554547 -1.78757
3.82999 0.58819 -1.75677
4.02035 0.627908 -1.72986
4.26473 0.678289 -1.71509
4.55444 0.73814 -1.70669
4.85874 0.801729 -1.68989
5.18577 0.868982 -1.66512
5.55522 0.94505 -1.63865
5.9979 1.03726 -1.61466
6.58377 1.15843 -1.60324
-0.00359211 -0.229081 -0.0182594
-0.00359211 -0.229081 -0.0182594
8.89051 1.67773 -1.49941
8.88754 1.67368 -1.28293
8.88919 1.6721 -1.06698
8.89176 1.66928 -0.853795
8.8954 1.66657 -0.641501
8.87819 1.66117 -0.428786
8.89561 1.66142 -0.216541
8.90239 1.65934 -0.00532219
8.86873 1.65048 0.205202
8.88143 1.6497 0.418182
8.8757 1.64501 0.629274
8.87873 1.64229 0.841623
8.87645 1.63999 1.05601
-0.00359211 -0.229081 -0.0182594
-0.00359211 -0.229081 -0.0182594
-0.00359211 -0.229081 -0.0182594
0.441324 -0.135817 -0.286916
0.447395 -0.13474 -0.276214
3.3546 0.47033 -1.83587
3.54621 0.508838 -1.83211
3.66276 0.532311 -1.78415
3.83463 0.566522 -1.75677
4.02527 0.604453 -1.72985
4.27169 0.654443 -1.71581
4.55257 0.7107 -1.70397
4.86461 0.774077 -1.6899
5.19199 0.839446 -1.66513
5.55622 0.912195 -1.63702
6.01076 1.00428 -1.61618
6.58212 1.11889 -1.60097
-0.00361917 -0.228643 -0.0182253
-0.00361917 -0.228643 -0.0182253
8.89199 1.62326 -1.49784
8.88283 1.61952 -1.28076
8.88085 1.61564 -1.06473
8.88338 1.61282 -0.852
8.88663 1.61169 -0.640163
8.87947 1.60678 -0.428371
8.89267 1.60767 -0.216271
8.8994 1.60558 -0.00537575
8.86607 1.5953 0.204818
8.87255 1.59491 0.417192
8.86875 1.59064 0.627961
8.87541 1.59022 0.84027
8.87348 1.58637 1.05433
-0.00361917 -0.228643 -0.0182253
-0.00361917 -0.228643 -0.0182253
-0.00361917 -0.228643 -0.0182253
0.436796 -0.138875 -0.283829
0.442771 -0.137863 -0.273251
3.36189 0.452659 -1.83773
3.54674 0.48867 -1.83032
3.6688 0.511924 -1.785
3.84097 0.545129 -1.75758
4.0281 0.58196 -1.72908
4.27301 0.629519 -1.71436
4.56346 0.685948 -1.70602
4.87398 0.747193 -1.69117
5.19804 0.809934 -1.66513
5.55888 0.879861 -1.63593
6.01208 0.968906 -1.61468
6.59361 1.08207 -1.60191
7.28678 1.2169 -1.58705
6.69813 1.09766 -1.29541
8.88093 1.56955 -1.49435
8.8856 1.56715 -1.27969
8.87929 1.5641 -1.06338
8.88378 1.56157 -0.851118
8.8815 1.5576 -0.63911
8.87592 1.5547 -0.427776
8.89135 1.5544 -0.216046
8.89612 1.5519 -0.00542972
8.86434 1.54376 0.204488
8.87121 1.54167 0.416572
8.86931 1.53794 0.627215
8.87632 1.53596 0.839293
8.87208 1.5333 1.05289
-0.00357241 -0.228302 -0.0181983
8.90605 1.53321 1.48705
-0.00357241 -0.228302 -0.0181983
0.444094 -0.139785 -0.287874
0.445042 -0.139753 -0.274198
3.35196 0.43041 -1.83023
3.55962 0.46976 -1.83478
3.67318 0.490511 -1.785
3.84171 0.522673 -1.75595
4.03283 0.558357 -1.72909
4.2799 0.604851 -1.71509
4.56678 0.659681 -1.70534
4.87785 0.718275 -1.69054
5.20596 0.779737 -1.66574
5.55765 0.846651 -1.63375
6.02094 0.933893 -1.6152
6.60107 1.0444 -1.60193
7.29498 1.17521 -1.58708
6.70375 1.05904 -1.29506
8.88363 1.51573 -1.49309
8.8783 1.51284 -1.27725
8.87615 1.50903 -1.06181
8.88249 1.50687 -0.850058
8.87593 1.50379 -0.638046
8.87259 1.49971 -0.427178
8.88612 1.49891 -0.215733
8.89447 1.4987 -0.0054814
8.86487 1.48962 0.204209
8.86394 1.48595 0.415674
8.86178 1.48373 0.625897
8.86874 1.48175 0.83756
8.86683 1.47795 1.05097
-0.00359947 -0.227864 -0.0181642
8.87923 1.47513 1.4808
-0.00359947 -0.227864 -0.0181642
0.434441 -0.143894 -0.281739
0.450638 -0.140967 -0.277103
3.36445 0.413059 -1.83491
3.56185 0.449262 -1.83388
3.68254 0.470779 -1.78755
3.84599 0.50088 -1.75595
4.04089 0.536179 -1.73062
