ply
format ascii 1.0
comment Created by Open3D
element vertex 2333
property double x
property double y
property double z
end_header
52.104 -13.965 2.033
53.018 -14.031 2.064
52.466 -13.709 2.043
52.35 -13.503 2.037
52.291 -13.313 2.034
52.717 -13.245 2.047
52.875 -13.197 2.052
53.534 -13.182 2.073
53.456 -12.985 2.069
55.225 -13.23 2.129
55.354 -13.078 2.132
57.462 -13.384 2.204
57.783 -13.267 2.214
57.759 -13.166 2.212
60.224 -13.33 2.295
60.964 -13.293 2.319
60.371 -12.965 2.297
60.29 -12.75 2.293
60.449 -12.585 2.297
61.299 -12.661 2.326
61.334 -12.468 2.326
61.216 -12.244 2.32
61.547 -12.109 2.33
65.508 -12.673 2.465
65.822 -12.519 2.475
65.841 -12.308 2.474
64.54 -11.961 2.429
64.463 -11.737 2.425
63.964 -11.439 2.406
64.102 -11.256 2.41
64.319 -11.086 2.416
64.044 -10.831 2.405
63.461 -10.631 2.385
63.611 -10.45 2.389
63.685 -10.257 2.39
63.655 -10.047 2.388
64.109 -9.912 2.403
29.327 0.086 1.014
29.309 0.178 1.014
31.751 0.291 1.081
31.609 0.339 1.077
31.282 0.434 1.068
59.044 1.539 1.832
59.05 1.632 1.832
75.575 20.869 2.363
75.909 21.218 2.374
75.273 21.295 2.358
75.273 21.551 2.36
75.109 21.759 2.357
72.756 21.451 2.293
72.559 21.641 2.289
72.547 21.885 2.291
72.093 21.996 2.28
71.733 22.133 2.271
68.563 21.274 2.181
68.215 21.401 2.173
68.146 21.615 2.173
68.471 21.955 2.184
68.408 22.172 2.185
57.505 18.843 1.871
8.07 2.71 0.443
8.043 2.729 0.442
8.025 2.751 0.442
8.012 2.775 0.442
7.987 2.794 0.441
7.98 2.82 0.441
8.005 2.857 0.442
7.816 2.804 0.437
7.965 2.885 0.441
63.629 23.083 2.069
63.699 23.335 2.073
63.839 23.614 2.079
63.538 23.73 2.072
63.499 23.943 2.073
63.102 23.907 2.063
62.78 24.011 2.056
62.678 24.198 2.055
62.641 24.41 2.056
62.434 24.555 2.052
62.189 24.685 2.047
62.366 24.869 2.054
34.117 13.741 1.219
34.22 13.908 1.224
6.088 2.564 0.39
6.043 2.568 0.389
6.046 2.581 0.389
5.957 2.565 0.387
6.045 2.625 0.39
6.031 2.642 0.39
60.969 26.903 2.04
31.637 14.093 1.16
31.587 14.13 1.159
31.583 14.247 1.161
31.004 14.34 1.147
30.75 14.34 1.141
30.8 14.422 1.143
30.404 14.354 1.132
62.678 29.801 2.116
35.476 20.436 1.334
35.821 21.086 1.351
35.789 21.219 1.352
29.819 17.748 1.162
35.472 21.562 1.349
35.455 21.704 1.351
40.621 26.197 1.537
40.715 26.53 1.544
40.426 26.523 1.537
40.292 26.617 1.536
39.553 28.138 1.542
21.655 15.626 0.942
64.152 46.535 2.386
63.771 46.565 2.378
62.944 46.418 2.358
64.06 47.552 2.401
42.749 31.952 1.675
62.543 47.038 2.359
62.058 46.98 2.347
61.455 46.828 2.332
61.328 46.883 2.33
60.749 46.744 2.315
40.436 31.327 1.614
22.519 17.575 0.994
22.453 17.637 0.993
22.281 17.616 0.989
22.346 17.781 0.993
22.212 17.732 0.99
22.225 17.856 0.992
31.138 25.818 1.32
31.063 25.839 1.319
30.965 25.922 1.318
57.062 48.047 2.258
56.824 48.152 2.255
56.767 48.411 2.259
56.492 48.484 2.254
57.008 49.238 2.278
56.267 48.753 2.254
56.126 48.94 2.255
56.117 49.244 2.26
56.606 49.988 2.284
54.303 48.26 2.205
54.029 48.321 2.2
53.849 48.313 2.197
53.716 48.499 2.197
53.439 48.555 2.193
53.552 48.965 2.203
53.517 49.243 2.207
53.468 49.508 2.211
53.324 49.687 2.211
54.774 51.198 2.269
53.761 50.569 2.237
53.304 50.456 2.225
53.883 51.326 2.253
53.334 51.123 2.239
53.125 51.245 2.237
52.881 51.17 2.231
41.598 40.513 1.804
41.44 40.614 1.803
51.982 51.257 2.215
51.508 51.111 2.203
51.414 51.339 2.205
51.723 51.973 2.223
51.502 51.914 2.218
50.196 50.917 2.173
50.046 51.084 2.174
38.781 39.844 1.736
38.614 39.922 1.735
38.534 40.091 1.737
49.26 51.563 2.168
49.604 52.086 2.185
48.435 51.181 2.145
47.804 50.833 2.126
47.506 50.836 2.12
47.461 51.108 2.125
47.615 51.597 2.138
47.413 51.704 2.136
47.666 52.144 2.15
47.629 52.433 2.155
47.465 52.584 2.155
47.675 53.151 2.171
47.688 53.501 2.178
47.477 53.603 2.176
47.665 54.157 2.191
23.389 27.02 1.191
23.415 27.222 1.195
46.798 54.713 2.187
46.51 54.723 2.182
46.288 54.811 2.18
45.982 54.622 2.171
45.86 54.826 2.173
45.831 55.142 2.179
12.694 15.4 0.757
12.63 15.421 0.756
12.584 15.464 0.756
12.442 15.388 0.752
45.067 55.809 2.18
44.878 55.933 2.179
44.742 56.124 2.181
45.382 57.295 2.217
45.172 57.4 2.216
45.021 57.579 2.217
44.77 57.443 2.21
45.29 58.488 2.241
45.103 58.626 2.241
45.026 58.907 2.246
13.262 17.609 0.814
13.098 17.506 0.809
44.584 59.678 2.256
44.336 59.737 2.253
43.574 59.097 2.226
43.434 59.297 2.228
42.977 59.061 2.216
42.848 59.276 2.218
42.608 59.335 2.216
42.455 59.318 2.213
42.644 59.978 2.231
42.355 59.97 2.226
43.11 61.448 2.271
43.044 61.765 2.277
44.029 63.602 2.334
45.018 65.468 2.392
45.181 65.926 2.405
44.886 65.939 2.4
44.079 66.536 2.402
43.948 66.793 2.406
43.814 66.818 2.404
25.19 38.968 1.484
24.898 38.783 1.475
8.264 13.175 0.636
8.343 13.348 0.641
26.693 50.529 1.779
8.011 15.496 0.688
8.053 15.697 0.693
11.503 40.958 1.378
11.379 41.011 1.378
6.788 25.428 0.932
6.728 25.363 0.93
6.611 25.243 0.926
6.494 25.121 0.922
6.38 25.002 0.918
6.269 24.896 0.914
6.158 24.783 0.91
6.045 24.659 0.906
5.974 24.536 0.903
5.872 24.452 0.9
5.754 24.297 0.895
5.712 24.461 0.899
12.775 55.35 1.77
10.099 60.425 1.892
9.917 60.506 1.893
9.82 60.508 1.893
9.63 60.54 1.893
3.213 20.725 0.785
3.165 20.848 0.788
9.058 60.622 1.893
8.892 60.819 1.898
7.553 52.843 1.675
9.599 67.867 2.092
9.437 68.267 2.102
9.221 68.281 2.102
8.979 68.101 2.096
8.776 68.216 2.099
8.25 65.768 2.03
8.041 65.772 2.029
6.293 52.205 1.653
6.114 52.097 1.65
5.813 50.912 1.617
5.741 51.719 1.638
5.646 52.361 1.656
5.433 51.921 1.643
5.218 50.637 1.607
2.656 27.588 0.97
1.746 19.503 0.747
1.687 19.534 0.747
4.243 50.499 1.601
4.086 50.526 1.602
3.999 50.441 1.599
3.876 50.912 1.612
3.715 50.91 1.611
3.546 50.794 1.608
3.555 53.322 1.677
3.341 52.605 1.657
3.188 52.818 1.663
3.147 53.534 1.682
1.844 35.305 1.18
2.275 49.299 1.565
2.119 49.29 1.564
2.041 49.272 1.564
1.886 49.26 1.563
1.73 49.239 1.562
1.574 49.213 1.562
0.758 26.688 0.942
1.264 49.194 1.561
1.109 49.181 1.56
1.032 49.173 1.56
0.877 49.152 1.559
0.722 49.137 1.559
0.568 49.117 1.558
0.413 49.1 1.558
0.259 49.087 1.557
0.105 49.076 1.557
0.027 49.052 1.556
-0.127 49.044 1.556
-0.281 49.031 1.556
-0.435 49.01 1.555
-0.588 48.976 1.554
-0.742 48.972 1.554
-0.896 48.954 1.554
-1.049 48.933 1.554
-1.126 48.919 1.553
-1.279 48.907 1.553
-1.432 48.891 1.553
-1.586 48.876 1.552
-1.739 48.857 1.552
-1.891 48.835 1.552
-1.968 48.822 1.551
-2.121 48.81 1.551
-2.274 48.805 1.551
-2.427 48.776 1.551
-2.579 48.76 1.55
-2.733 48.751 1.55
-2.885 48.731 1.55
-2.961 48.718 1.55
-3.114 48.703 1.55
-3.266 48.679 1.549
-3.42 48.682 1.55
-3.571 48.651 1.549
-3.723 48.622 1.549
-3.875 48.604 1.548
-3.942 48.478 1.545
-2.237 26.344 0.935
-2.319 26.323 0.935
-2.402 26.319 0.935
-3.498 35.939 1.201
-3.609 35.916 1.2
-3.662 35.874 1.199
-3.798 36.087 1.206
-5.247 48.473 1.548
-4.817 43.208 1.403
-4.953 43.195 1.403
-5.089 43.177 1.403
-5.225 43.169 1.403
-5.294 43.171 1.404
-6.085 48.381 1.549
-6.234 48.344 1.548
-6.376 48.245 1.546
-5.232 38.619 1.279
-5.35 38.578 1.279
-5.414 38.59 1.279
-6.902 48.148 1.545
-5.242 35.716 1.201
-7.227 48.252 1.549
-7.377 48.217 1.549
-7.516 48.115 1.547
-4.182 26.156 0.936
-4.221 26.14 0.936
-7.913 48.172 1.55
-8.066 48.157 1.55
-8.218 48.14 1.551
-8.37 48.115 1.551
-8.522 48.095 1.551
-8.656 47.975 1.548
-6.644 36.458 1.227
-6.759 36.439 1.227
-9.061 48.057 1.552
-9.211 48.021 1.552
-9.364 48.005 1.553
-9.516 47.979 1.553
-9.671 47.973 1.553
-9.751 47.977 1.554
-9.901 47.944 1.554
-5.245 24.939 0.909
-5.316 24.891 0.908
-5.389 24.851 0.907
-5.48 24.893 0.909
-7.966 35.701 1.214
-8.023 35.692 1.214
-8.139 35.686 1.214
-8.255 35.676 1.215
-8.362 35.627 1.214
-8.478 35.618 1.215
-11.518 47.765 1.559
-11.672 47.742 1.559
-11.751 47.743 1.56
-11.908 47.731 1.56
-12.06 47.705 1.561
-12.216 47.688 1.561
-12.371 47.671 1.562
-12.523 47.639 1.562
-12.68 47.629 1.563
-12.762 47.634 1.564
-12.916 47.611 1.564
-13.073 47.599 1.565
-10.349 37.199 1.27
-10.271 36.474 1.25
-10.258 35.993 1.237
-10.376 35.978 1.238
-10.435 35.971 1.238
-10.555 35.963 1.239
-10.643 35.844 1.236
-10.747 35.783 1.235
-10.869 35.78 1.236
-10.984 35.753 1.236
-11.102 35.738 1.237
-11.163 35.735 1.237
-11.28 35.715 1.238
-11.398 35.699 1.238
-11.513 35.67 1.239
-11.631 35.655 1.239
-11.75 35.637 1.24
-11.873 35.634 1.241
-11.976 35.756 1.245
-12.116 35.802 1.247
-12.23 35.767 1.247
-12.369 35.808 1.25
-13.024 37.327 1.295
-13.215 37.495 1.301
-8.948 25.11 0.941
-8.742 23.932 0.909
-8.884 24.087 0.914
-8.856 23.779 0.906
-8.94 23.778 0.907
-14.148 37.313 1.305
-14.243 37.386 1.308
-9.305 23.946 0.915
-14.638 37.362 1.311
-14.762 37.333 1.312
-9.595 23.911 0.917
-15.094 37.312 1.315
-15.218 37.281 1.315
-9.793 23.541 0.909
-15.593 37.195 1.317
-15.709 37.144 1.317
-10.138 23.636 0.915
-10.213 23.606 0.915
-16.206 37.174 1.323
-16.339 37.162 1.324
-16.473 37.149 1.325
-16.603 37.126 1.326
-10.628 23.543 0.918
-16.81 37.12 1.328
-16.94 37.096 1.329
-17.073 37.077 1.33
-10.931 23.521 0.921
-17.071 36.468 1.315
-17.022 36.068 1.305
-17.009 35.747 1.296
-16.875 35.324 1.284
-16.97 35.236 1.283
-17.101 35.224 1.285
-17.246 35.242 1.287
-11.573 23.442 0.927
-11.664 23.441 0.928
-22.157 44.405 1.572
-22.156 44.056 1.564
-22.283 43.963 1.563
-11.967 23.402 0.931
-23.882 46.397 1.642
-24.034 46.334 1.643
-22.963 43.928 1.571
-12.279 23.374 0.934
-23.052 43.597 1.564
-24.657 46.283 1.65
-24.84 46.275 1.652
-23.27 43.022 1.553
-25.184 46.218 1.655
-23.509 42.819 1.551
-12.861 23.314 0.94
-12.953 23.307 0.941
-13.024 23.263 0.941
-23.973 42.549 1.551
-23.899 42.107 1.539
-13.303 23.245 0.945
-24.829 43.113 1.576
-25.505 44.129 1.609
-25.717 44.175 1.613
-13.627 23.214 0.948
-27.108 45.899 1.673
-25.959 43.638 1.604
-13.991 23.163 0.952
-26.997 44.269 1.633
-14.244 23.17 0.956
-14.323 23.135 0.956
-14.423 23.134 0.958
-27.49 43.829 1.63
-23.064 36.509 1.395
-14.657 23.103 0.96
-23.242 36.41 1.396
-15.752 24.322 1.005
-15.066 23.101 0.966
-15.719 23.94 0.996
-15.711 23.764 0.991
-15.585 23.492 0.983
-15.626 23.395 0.982
-15.625 23.235 0.978
-15.649 23.112 0.976
-15.657 22.969 0.972
-15.805 23.03 0.976
-31.411 45.508 1.728
-31.508 45.496 1.729
-31.705 45.474 1.732
-31.899 45.448 1.734
-30.191 42.726 1.646
-32.295 45.403 1.74
-24.062 33.592 1.344
-24.177 33.53 1.344
-30.744 42.508 1.65
-30.985 42.56 1.655
-31.55 43.051 1.675
-31.197 42.291 1.653
-31.24 42.07 1.648
-31.55 42.211 1.657
-31.418 41.76 1.645
-31.752 42.066 1.657
-31.998 42.116 1.662
-32.023 41.876 1.657
-34.731 45.125 1.773
-34.942 45.106 1.776
-35.13 45.056 1.779
-35.266 45.084 1.781
-35.487 45.074 1.785
-35.682 45.029 1.787
-35.895 45.008 1.79
-28.949 36.058 1.479
-34.078 42.18 1.699
-34.307 42.192 1.703
-34.481 42.27 1.708
-34.227 41.69 1.691
-34.377 41.606 1.692
-34.475 41.459 1.69
-37.494 44.806 1.814
-34.431 40.88 1.677
-34.72 40.961 1.684
-38.15 44.726 1.824
-38.28 44.736 1.826
-38.503 44.713 1.83
-38.724 44.684 1.833
-38.939 44.648 1.836
-39.159 44.617 1.84
-39.361 44.564 1.842
-36.794 41.392 1.73
-39.758 44.588 1.85
-39.984 44.559 1.854
-37.292 41.295 1.738
-29.891 32.883 1.43
-40.663 44.466 1.864
-40.888 44.431 1.868
-41.035 44.45 1.871
-41.268 44.422 1.875
-41.499 44.39 1.878
-41.718 44.344 1.882
-41.948 44.309 1.885
-42.168 44.262 1.888
-32.587 33.983 1.502
-32.498 33.783 1.497
-32.524 33.597 1.494
-32.57 33.435 1.491
-32.643 33.3 1.49
-32.743 33.193 1.49
-32.86 33.102 1.49
-32.995 33.03 1.491
-33.108 33.039 1.494
-33.159 32.883 1.492
-33.538 33.051 1.502
-45.055 44.135 1.942
-45.3 44.097 1.946
-45.54 44.053 1.95
-45.792 44.019 1.954
-45.969 44.051 1.958
-46.221 44.014 1.962
-46.472 43.976 1.967
-46.722 43.935 1.971
-46.987 43.907 1.976
-47.241 43.868 1.98
-47.483 43.815 1.984
-47.67 43.849 1.988
-53.168 48.603 2.188
-38.441 34.91 1.635
-38.568 34.805 1.636
-50.059 43.638 2.033
-50.261 43.537 2.036
-50.843 43.486 2.047
-52.694 43.238 2.082
-52.998 43.21 2.088
-28.754 23.353 1.226
-28.854 23.284 1.227
-53.769 43.14 2.103
-55.097 42.94 2.128
-55.442 42.93 2.135
-55.729 42.872 2.141
-46.582 35.366 1.816
-46.656 35.192 1.814
-46.196 34.279 1.789
-46.511 34.287 1.796
-46.618 34.14 1.796
-46.785 34.037 1.798
-46.944 33.928 1.8
-46.948 33.819 1.799
-59.181 42.357 2.208
-59.56 42.346 2.217
-46.84 33.075 1.784
-47.231 33.128 1.794
-47.379 33.011 1.795
-47.796 33.079 1.806
-47.116 32.499 1.781
-47.689 32.674 1.797
-47.816 32.541 1.798
-48.531 32.805 1.818
-48.503 32.564 1.814
-48.843 32.57 1.822
-62.285 41.261 2.262
-62.417 41.207 2.264
-62.295 40.846 2.256
-62.256 40.541 2.25
-62.438 40.381 2.252
-62.723 40.287 2.257
-62.913 40.13 2.259
-62.311 39.471 2.235
-59.082 37.294 2.128
-62.125 38.944 2.223
-62.444 38.871 2.23
-62.275 38.495 2.22
-61.43 37.706 2.189
-64.819 39.508 2.294
-65.065 39.378 2.298
-63.388 38.227 2.243
-65.288 39.094 2.3
-55.377 32.683 1.976
-70.088 38.171 2.402
-56.872 30.737 1.985
-56.992 30.571 1.986
-62.086 32.681 2.137
-62.227 32.506 2.138
-62.558 32.429 2.145
-62.372 32.084 2.136
-62.62 31.963 2.14
-62.241 31.278 2.123
-65.512 32.026 2.212
-53.691 20.52 1.788
-42.057 15.166 1.437
-55.601 19.174 1.825
-55.699 19.012 1.826
-56.775 14.332 1.818
-56.767 14.235 1.817
-56.821 14.059 1.817
-56.83 13.871 1.816
-56.842 13.685 1.815
-56.797 13.486 1.813
-56.799 13.298 1.812
-56.811 13.113 1.811
-56.808 13.018 1.81
-56.806 12.83 1.809
-56.803 12.642 1.808
-56.799 12.454 1.806
-56.652 12.235 1.801
-56.884 12.098 1.807
-56.812 11.896 1.804
-24.067 2.39 0.873
-23.983 2.305 0.871
-24.119 2.242 0.874
-50.447 2.249 1.596
-78.636 2.284 2.37
-64.933 -16.95 2.053
-64.111 -17.167 2.032
-63.945 -17.338 2.029
-50.543 -14.137 1.651
-63.174 -18.091 2.014
-62.996 -18.255 2.011
-62.649 -18.368 2.003
-62.575 -18.56 2.002
-61.473 -18.971 1.976
-61.339 -19.141 1.974
-61.307 -19.343 1.975
-61.309 -19.555 1.977
-61.231 -19.636 1.976
-61.169 -19.829 1.976
-33.903 -18.412 1.269
-33.766 -18.476 1.266
-48.462 -26.901 1.732
-48.348 -26.937 1.729
-48.174 -27.039 1.727
-48.011 -27.146 1.724
-47.856 -27.257 1.722
-47.692 -27.363 1.719
-47.51 -27.457 1.716
-47.356 -27.567 1.714
-47.228 -27.592 1.712
-24.141 -14.22 0.978
-24.11 -14.304 0.979
-46.743 -27.903 1.704
-46.581 -28.006 1.702
-46.428 -28.112 1.7
-46.264 -28.212 1.698
-46.142 -28.237 1.695
-45.99 -28.343 1.693
-45.822 -28.439 1.691
-45.668 -28.543 1.688
-45.519 -28.649 1.686
-45.348 -28.74 1.684
-45.198 -28.845 1.682
-45.094 -28.878 1.68
-44.932 -28.974 1.678
-44.779 -29.075 1.676
-44.614 -29.167 1.673
-44.469 -29.272 1.672
-44.321 -29.375 1.67
-44.2 -29.395 1.667
-44.051 -29.496 1.665
-43.9 -29.595 1.663
-43.743 -29.689 1.661
-43.586 -29.784 1.659
-43.451 -29.892 1.658
-43.288 -29.981 1.656
-43.18 -30.007 1.653
-43.04 -30.11 1.652
-42.885 -30.202 1.65
-42.723 -30.29 1.648
-42.583 -30.392 1.646
-42.432 -30.486 1.644
-42.286 -30.583 1.643
-42.19 -30.614 1.641
-42.03 -30.701 1.639
-41.88 -30.794 1.637
-41.745 -30.897 1.636
-41.595 -30.988 1.634
-41.439 -31.076 1.632
-41.305 -31.178 1.631
-41.198 -31.199 1.629
-41.048 -31.289 1.627
-40.919 -31.394 1.626
-40.925 -31.603 1.629
-40.915 -31.802 1.633
-40.919 -32.011 1.636
-40.925 -32.224 1.64
-40.97 -32.363 1.643
-40.976 -32.578 1.647
-40.975 -32.788 1.651
-40.97 -32.995 1.654
-40.983 -33.218 1.658
-40.964 -33.416 1.661
-40.964 -33.631 1.665
-41.017 -33.783 1.669
-41.003 -33.988 1.672
-41.018 -34.218 1.676
-41.019 -34.438 1.68
-41.014 -34.654 1.684
-41.009 -34.871 1.688
-41.068 -35.032 1.692
-41.055 -35.244 1.695
-21.311 -18.428 0.983
-20.364 -17.723 0.95
-20.119 -17.621 0.944
-20.161 -17.77 0.947
-20.141 -17.865 0.948
-20.207 -17.98 0.952
-20.253 -18.135 0.956
-20.294 -18.287 0.959
-20.406 -18.504 0.966
-20.472 -18.681 0.97
-20.341 -18.679 0.967
-19.791 -18.29 0.949
-19.748 -18.308 0.949
-19.904 -18.568 0.957
-20.691 -19.424 0.988
-19.516 -18.438 0.946
-19.394 -18.439 0.944
-18.875 -18.059 0.926
-18.805 -18.106 0.926
-18.769 -18.128 0.926
-18.751 -18.225 0.927
-18.438 -18.034 0.917
-18.444 -18.153 0.92
-18.553 -18.375 0.926
-18.643 -18.58 0.932
-18.956 -18.951 0.945
-18.82 -18.934 0.942
-18.718 -18.951 0.941
-18.481 -18.828 0.934
-18.036 -18.492 0.918
-18.005 -18.577 0.919
-17.954 -18.641 0.92
-17.712 -18.448 0.911
-17.598 -18.445 0.909
-17.571 -18.533 0.91
-17.384 -18.452 0.905
-17.223 -18.397 0.901
-17.142 -18.426 0.9
-17.023 -18.414 0.898
-19.456 -21.106 0.997
-19.453 -21.236 1
-19.385 -21.296 1
-19.279 -21.314 0.998
-19.278 -21.447 1.001
-19.104 -21.388 0.997
-18.957 -21.359 0.993
-18.877 -21.336 0.991
-15.501 -17.638 0.854
-15.47 -17.716 0.855
-18.816 -21.676 0.997
-15.502 -17.979 0.861
-15.411 -17.987 0.859
-15.547 -18.261 0.868
-15.089 -17.78 0.849
-14.975 -17.759 0.847
-15.006 -17.91 0.851
-14.812 -17.791 0.845
-14.754 -17.836 0.845
-14.797 -18.003 0.849
-14.709 -18.01 0.848
-14.457 -17.759 0.838
-14.523 -17.955 0.843
-14.41 -17.931 0.841
-14.999 -18.781 0.869
-14.723 -18.556 0.86
-14.739 -18.696 0.863
-14.199 -18.071 0.84
-14.608 -18.711 0.861
-30.314 -39.035 1.567
-14.467 -18.772 0.86
-14.097 -18.413 0.846
-14.125 -18.57 0.85
-14.01 -18.539 0.847
-14.017 -18.609 0.849
-13.798 -18.439 0.841
-13.831 -18.604 0.846
-13.809 -18.697 0.847
-13.763 -18.758 0.848
-13.871 -19.029 0.856
-13.789 -19.105 0.856
-14.057 -19.605 0.871
-28.579 -40.078 1.561
-28.451 -40.164 1.561
-14.047 -19.986 0.88
-28.175 -40.309 1.56
-28.053 -40.404 1.56
-27.982 -40.438 1.56
-27.852 -40.521 1.56
-27.719 -40.6 1.559
-27.582 -40.674 1.559
-27.446 -40.749 1.559
-13.812 -20.669 0.892
-13.814 -20.742 0.893
-27.121 -40.956 1.558
-26.947 -40.973 1.556
-13.475 -20.795 0.89
-13.449 -20.899 0.892
-13.423 -21.002 0.894
-13.44 -21.102 0.896
-13.412 -21.205 0.898
-13.277 -21.139 0.895
-13.33 -21.371 0.901
-13.927 -22.482 0.935
-13.407 -21.798 0.912
-13.066 -21.395 0.897
-12.767 -20.98 0.883
-12.652 -20.94 0.881
-12.573 -20.957 0.88
-12.569 -21.099 0.883
-12.587 -21.281 0.888
-12.482 -21.257 0.886
-12.54 -21.509 0.893
-12.439 -21.414 0.889
-12.403 -21.507 0.891
-12.369 -21.605 0.893
-12.259 -21.569 0.89
-12.212 -21.644 0.891
-12.184 -21.753 0.894
-12.081 -21.73 0.892
-12.07 -21.79 0.893
-11.96 -21.754 0.891
-11.927 -21.854 0.893
-11.858 -21.892 0.893
-11.729 -21.818 0.889
-11.682 -21.895 0.891
-11.687 -21.988 0.893
-11.602 -21.993 0.892
-11.522 -22.009 0.891
-11.542 -22.216 0.897
-11.624 -22.722 0.91
-11.85 -23.341 0.928
-11.485 -22.712 0.908
-11.357 -22.636 0.904
-11.323 -22.746 0.907
-11.608 -23.502 0.929
-11.514 -23.497 0.928
-11.427 -23.506 0.927
-11.392 -23.623 0.929
-11.236 -23.394 0.922
-11.209 -23.527 0.925
-11.125 -23.54 0.924
-11.054 -23.58 0.924
-11.06 -23.789 0.929
-11.008 -23.871 0.931
-10.921 -23.781 0.928
-10.923 -23.984 0.933
-15.023 -33.239 1.211
-14.898 -33.241 1.21
-14.798 -33.297 1.21
-14.723 -33.411 1.212
-29.446 -67.327 2.228
-29.349 -67.394 2.228
-24.897 -57.674 1.935
-24.666 -57.637 1.931
-24.502 -57.754 1.932
-24.357 -57.918 1.935
-24.138 -57.907 1.932
-23.898 -57.842 1.928
-23.813 -57.895 1.929
-23.681 -58.091 1.932
-23.547 -58.286 1.936
-27.235 -68.639 2.238
-27.036 -68.769 2.239
-26.938 -68.835 2.24
-26.734 -68.951 2.241
-26.534 -69.078 2.242
-26.329 -69.195 2.243
-26.128 -69.32 2.244
-25.925 -69.443 2.245
-25.717 -69.552 2.246
-25.62 -69.624 2.247
-25.418 -69.751 2.249
-25.211 -69.863 2.249
-3.532 -11.032 0.527
-3.538 -11.291 0.534
-3.521 -11.361 0.535
-8.512 -27.649 1.004
-8.382 -27.534 0.999
-8.265 -27.461 0.997
-8.197 -27.389 0.994
-8.077 -27.304 0.991
-7.978 -27.283 0.99
-7.895 -27.318 0.99
-7.873 -27.563 0.996
-21.498 -76.005 2.379
-21.205 -76.342 2.386
-21.022 -76.615 2.392
-20.05 -73.985 2.315
-19.816 -74.042 2.315
-19.68 -74.471 2.325
-19.504 -74.753 2.331
-19.238 -75.181 2.341
-18.941 -75.001 2.334
-18.673 -74.932 2.331
-18.38 -74.757 2.324
-18.123 -74.721 2.321
-18.011 -75.291 2.336
-17.747 -74.707 2.319
-4.687 -20.383 0.783
-4.34 -20.022 0.772
-4.366 -20.607 0.787
-4.28 -20.519 0.785
-4.208 -20.497 0.784
-4.105 -20.651 0.787
-4.072 -20.659 0.787
-7.007 -36.653 1.234
-6.495 -34.574 1.175
-6.379 -34.555 1.174
-6.285 -34.65 1.176
-6.202 -34.817 1.18
-6.038 -34.527 1.172
-5.966 -34.432 1.169
-5.9 -34.701 1.176
-6.056 -36.301 1.22
-5.73 -35.025 1.184
-5.432 -33.881 1.151
-5.334 -33.947 1.153
-5.248 -33.748 1.147
-5.121 -33.626 1.143
-3.198 -21.989 0.819
-4.882 -34.219 1.158
-5.362 -38.427 1.275
-4.668 -34.261 1.159
-4.615 -34.268 1.159
-4.577 -34.812 1.173
-4.382 -34.16 1.155
-4.265 -34.102 1.153
-4.083 -33.502 1.136
-4.005 -33.745 1.142
-3.914 -33.429 1.133
-3.813 -33.475 1.134
-3.739 -33.763 1.142
-3.875 -36.011 1.204
-3.664 -35.096 1.178
-3.513 -34.71 1.167
-3.405 -34.729 1.167
-3.528 -36.559 1.218
-3.183 -34.123 1.15
-3.074 -34.113 1.15
-2.936 -33.776 1.14
-2.846 -33.967 1.145
-2.731 -33.876 1.142
-2.635 -34.02 1.146
-2.589 -34.121 1.149
-2.525 -34.726 1.165
-2.389 -34.346 1.155
-2.268 -34.15 1.149
-2.158 -34.117 1.148
-2.074 -34.505 1.158
-2.136 -36.468 1.212
-1.922 -34.706 1.164
-1.81 -34.65 1.162
-1.703 -34.712 1.164
-1.598 -34.789 1.166
-1.554 -36.305 1.207
-1.442 -36.348 1.208
-1.385 -36.352 1.208
-1.269 -36.323 1.207
-2.411 -74.935 2.269
-2.177 -74.995 2.27
-1.986 -76.698 2.317
-1.744 -76.658 2.316
-1.523 -77.662 2.343
-1.406 -77.97 2.351
-0.203 -15.031 0.622
-0.156 -15.042 0.622
-0.013 -14.743 0.614
0.033 -14.761 0.614
0.056 -14.813 0.616
0.103 -14.866 0.617
0.199 -15.099 0.624
0.247 -15.125 0.624
0.296 -15.184 0.626
0.344 -15.191 0.626
0.367 -15.182 0.626
0.42 -15.393 0.632
9.239 -70.001 2.149
9.441 -69.841 2.145
9.532 -68.878 2.119
9.966 -71.199 2.184
10.062 -70.273 2.159
10.133 -69.212 2.131
10.351 -69.184 2.131
10.249 -67.062 2.073
10.464 -67.053 2.073
10.675 -67.024 2.074
10.805 -67.159 2.078
11.09 -67.577 2.09
11.576 -69.186 2.136
11.843 -69.441 2.144
11.558 -65.282 2.03
11.508 -64.408 2.006
11.733 -64.499 2.01
11.962 -64.602 2.014
12.109 -64.265 2.006
12.318 -64.266 2.007
12.39 -63.56 1.988
12.689 -64.022 2.002
12.68 -63.455 1.987
12.774 -62.894 1.972
12.94 -62.699 1.968
13.137 -62.658 1.968
13.369 -62.783 1.972
13.606 -62.928 1.978
13.86 -63.141 1.985
14.368 -64.97 2.037
4.814 -20.755 0.794
4.884 -20.762 0.795
4.967 -20.822 0.797
5.075 -20.983 0.802
5.097 -20.929 0.801
5.148 -20.852 0.799
5.294 -21.16 0.808
14.808 -58.596 1.869
15.009 -58.618 1.871
15.105 -58.23 1.862
15.203 -58.23 1.862
15.507 -58.642 1.875
15.464 -57.741 1.851
15.655 -57.731 1.852
15.809 -57.579 1.849
16.099 -57.924 1.861
16.286 -57.893 1.861
3.16 -10.958 0.522
3.188 -10.924 0.521
3.17 -10.734 0.516
3.263 -10.927 0.522
17.616 -58.709 1.893
17.939 -59.449 1.915
17.977 -58.905 1.901
17.12 -55.466 1.804
17.325 -55.51 1.806
17.468 -55.356 1.804
17.598 -55.166 1.8
17.777 -55.127 1.8
17.884 -55.162 1.802
18.033 -55.031 1.8
18.106 -54.673 1.791
18.431 -55.074 1.804
18.479 -54.645 1.794
18.699 -54.728 1.798
19.031 -55.134 1.811
19.113 -55.091 1.811
19.115 -54.544 1.797
20.605 -58.214 1.905
20.783 -58.134 1.905
20.836 -57.711 1.895
21.029 -57.677 1.896
21.223 -57.645 1.897
20.044 -54.178 1.796
21.777 -58.303 1.919
21.893 -58.056 1.914
22.149 -58.181 1.919
21.081 -54.853 1.823
21.913 -56.488 1.873
22.004 -56.459 1.874
22.436 -57.039 1.893
22.397 -56.418 1.877
17.981 -44.867 1.537
21.182 -52.391 1.761
21.861 -53.587 1.799
21.436 -52.076 1.756
21.424 -51.813 1.749
21.565 -51.694 1.748
21.108 -50.153 1.704
21.066 -49.615 1.69
21.133 -49.343 1.684
21.311 -49.33 1.685
21.469 -49.268 1.685
6.47 -14.614 0.648
6.523 -14.61 0.648
6.671 -14.693 0.652
6.709 -14.654 0.651
6.725 -14.628 0.651
6.768 -14.6 0.651
6.732 -14.403 0.645
22.765 -48.453 1.68
22.944 -48.439 1.681
23.025 -48.217 1.677
23.553 -48.928 1.701
5.441 -11.122 0.549
5.461 -11.075 0.548
5.484 -11.034 0.547
5.521 -11.022 0.547
5.558 -11.008 0.547
5.608 -11.021 0.548
5.645 -11.052 0.55
23.339 -45.516 1.614
23.338 -45.164 1.606
23.397 -44.932 1.601
23.406 -44.606 1.593
23.333 -44.129 1.58
23.523 -44.152 1.583
23.51 -43.962 1.578
23.843 -44.249 1.59
24.045 -44.291 1.593
23.951 -43.787 1.58
24.096 -43.726 1.58
24.308 -43.785 1.585
24.38 -43.753 1.585
25.458 -45.354 1.638
25.243 -44.64 1.618
25.169 -44.186 1.606
24.643 -42.946 1.569
25.394 -43.936 1.603
24.328 -41.786 1.537
24.453 -41.85 1.54
25.581 -43.467 1.594
25.576 -43.149 1.587
26.171 -43.838 1.612
24.86 -41.344 1.534
24.977 -41.245 1.534
26.296 -43.118 1.596
26.367 -43.083 1.597
27.46 -44.555 1.647
26.267 -42.319 1.577
26.334 -42.131 1.574
25.995 -41.298 1.549
26.141 -41.243 1.55
25.811 -40.439 1.527
25.963 -40.537 1.531
26.037 -40.373 1.529
26.15 -40.269 1.528
26.303 -40.228 1.529
26.531 -40.299 1.534
26.099 -39.372 1.507
26.044 -39.156 1.501
26.189 -39.107 1.502
26.522 -39.337 1.512
26.644 -39.252 1.512
25.878 -37.865 1.469
25.816 -37.52 1.46
25.887 -37.371 1.458
25.934 -37.314 1.457
25.826 -36.909 1.446
26.035 -36.961 1.451
25.883 -36.5 1.438
26.36 -36.928 1.455
26.489 -36.863 1.456
26.636 -36.945 1.46
26.679 -36.76 1.457
26.656 -36.487 1.45
27.337 -37.174 1.477
27.107 -36.62 1.461
27.374 -36.738 1.468
27.234 -36.311 1.456
27.224 -36.179 1.453
27.288 -36.028 1.45
27.562 -36.153 1.458
28.074 -36.587 1.476
28.215 -36.532 1.477
29.694 -38.201 1.538
29.48 -37.68 1.523
28.139 -35.848 1.461
28.252 -35.76 1.461
28.411 -35.73 1.463
28.468 -35.572 1.461
28.462 -35.336 1.455
28.622 -35.307 1.458
28.66 -35.127 1.454
28.725 -35.094 1.455
29.205 -35.453 1.471
29.456 -35.531 1.477
29.611 -35.49 1.479
29.582 -35.23 1.473
29.729 -35.18 1.474
30.085 -35.489 1.487
30.114 -35.296 1.484
30.195 -35.167 1.482
30.221 -34.975 1.479
30.048 -34.554 1.467
30.24 -34.555 1.47
30.19 -34.28 1.464
29.908 -33.852 1.45
30.171 -33.934 1.456
30.235 -33.792 1.455
29.941 -33.252 1.438
30.504 -33.665 1.457
30 -32.899 1.432
30.509 -33.352 1.451
30.524 -33.159 1.447
30.951 -33.412 1.46
31.372 -33.654 1.473
31.558 -33.642 1.476
30.977 -32.814 1.449
14.112 -14.42 0.763
14.341 -14.563 0.77
14.398 -14.529 0.771
14.54 -14.627 0.775
14.575 -14.57 0.775
14.632 -14.535 0.775
14.818 -14.629 0.781
31.938 -30.981 1.431
31.752 -30.704 1.422
31.915 -30.668 1.425
32.627 -31.156 1.448
32.036 -30.4 1.422
32.092 -30.262 1.421
31.763 -29.763 1.405
31.771 -29.677 1.403
32.042 -29.742 1.41
32.075 -29.586 1.408
31.941 -29.277 1.399
32.366 -29.48 1.412
32.94 -29.815 1.429
32.102 -28.872 1.395
32.161 -28.834 1.396
32.73 -29.16 1.413
33.003 -29.218 1.42
33.495 -29.467 1.434
33.017 -28.862 1.414
33.317 -28.941 1.421
33.873 -29.237 1.438
34.178 -29.407 1.448
14.808 -12.56 0.742
14.972 -12.619 0.747
34.258 -28.735 1.437
34.294 -28.582 1.435
34.857 -28.959 1.454
34.816 -28.74 1.449
35.715 -29.295 1.478
35.804 -29.18 1.478
35.568 -28.802 1.466
35.931 -28.91 1.476
35.92 -28.715 1.472
35.54 -28.32 1.457
35.618 -28.199 1.457
35.445 -27.882 1.448
35.615 -27.835 1.451
35.397 -27.486 1.44
35.778 -27.602 1.45
35.81 -27.448 1.448
36.079 -27.564 1.456
36.038 -27.354 1.452
35.958 -27.115 1.446
35.589 -26.661 1.431
35.667 -26.546 1.43
36.478 -26.973 1.455
36.365 -26.712 1.448
36.428 -26.67 1.449
36.157 -26.298 1.437
36.397 -26.298 1.442
36.402 -26.127 1.44
36.472 -26.005 1.439
36.894 -26.132 1.451
37.024 -26.136 1.454
36.728 -25.754 1.441
36.415 -25.364 1.428
35.334 -24.446 1.389
35.333 -24.282 1.387
35.467 -24.21 1.389
35.705 -24.209 1.394
36.084 -24.383 1.405
35.928 -24.114 1.398
36.019 -24.011 1.398
35.814 -23.712 1.389
35.798 -23.54 1.386
36.207 -23.646 1.397
36.158 -23.453 1.393
36.596 -23.655 1.406
36.512 -23.439 1.401
23.278 -14.37 0.96
23.34 -14.307 0.961
24.095 -14.667 0.984
37.081 -22.429 1.399
37.199 -22.341 1.401
37.144 -22.149 1.397
37.197 -22.102 1.398
38.084 -22.468 1.424
38.577 -22.596 1.437
37.857 -22.014 1.412
37.701 -21.765 1.405
34.776 -19.929 1.31
37.6 -21.393 1.397
37.857 -21.304 1.402
38.221 -21.351 1.412
38.067 -21.108 1.405
38.452 -21.164 1.415
38.629 -21.104 1.418
38.652 -21.037 1.418
38.575 -20.839 1.413
38.799 -20.803 1.418
41.916 -22.307 1.513
23.839 -12.578 0.949
23.84 -12.483 0.948
23.902 -12.42 0.949
40.755 -21.117 1.47
40.8 -20.977 1.469
40.843 -20.837 1.469
36.548 -18.499 1.334
41.019 -20.604 1.47
40.794 -20.33 1.461
40.533 -20.041 1.451
29.819 -14.561 1.12
29.929 -14.499 1.122
30.129 -14.479 1.127
30.169 -14.382 1.127
42.357 -20.041 1.496
42.172 -19.791 1.489
42.799 -20.004 1.507
42.917 -19.895 1.508
42.704 -19.633 1.5
42.856 -19.54 1.503
43.096 -19.486 1.508
42.978 -19.271 1.503
43.435 -19.394 1.516
43.368 -19.201 1.512
42.828 -18.801 1.494
42.595 -18.539 1.485
45.485 -19.629 1.57
44.975 -19.241 1.553
45.006 -19.087 1.552
44.883 -18.952 1.547
45.735 -19.143 1.571
45.817 -19.008 1.572
45.392 -18.665 1.557
45.662 -18.608 1.563
45.119 -18.222 1.546
44.479 -17.881 1.526
45.74 -18.223 1.562
45.717 -18.047 1.559
44.716 -17.489 1.528
44.715 -17.327 1.526
45.136 -17.328 1.537
45.234 -17.202 1.538
46.377 -17.554 1.571
46.559 -17.456 1.575
47.786 -17.746 1.609
46.795 -17.21 1.579
46.787 -17.041 1.577
47.653 -17.187 1.601
47.11 -16.824 1.583
47.081 -16.73 1.582
47.132 -16.582 1.582
29.642 -10.314 1.071
29.438 -10.139 1.064
29.611 -10.095 1.068
49.481 -16.454 1.641
49.2 -16.189 1.632
49.528 -16.125 1.64
48.973 -15.774 1.622
50.748 -16.171 1.672
50.94 -16.056 1.676
50.954 -15.884 1.675
51.183 -15.868 1.681
51.328 -15.736 1.684
51.171 -15.512 1.678
51.231 -15.355 1.678
51.923 -15.208 1.695
51.893 -15.11 1.694
51.773 -14.899 1.689
54.073 -15.378 1.753
54.721 -15.378 1.77
52.421 -14.553 1.704
55.985 -15.354 1.804
56.243 -15.236 1.81
55.617 -14.972 1.791
52.706 -14.009 1.707
52.695 -13.829 1.706
52.59 -13.625 1.701
52.2 -13.349 1.689
53.05 -13.389 1.712
53.14 -13.235 1.713
53.144 -13.147 1.713
53.29 -13.006 1.716
53.13 -12.79 1.71
55.309 -13.132 1.771
55.631 -13.024 1.779
58.055 -13.4 1.846
57.682 -13.123 1.834
57.673 -13.026 1.833
57.833 -12.871 1.837
58.717 -12.875 1.86
60.152 -12.992 1.9
60.402 -12.848 1.905
60.383 -12.646 1.904
60.491 -12.569 1.906
60.487 -12.37 1.905
61.365 -12.349 1.929
68.351 -13.535 2.123
65.212 -12.7 2.034
69.2 -13.252 2.145
65.929 -12.41 2.052
65.793 -12.277 2.048
69.403 -12.727 2.147
65.061 -11.718 2.025
64.607 -11.426 2.011
64.333 -11.17 2.003
64.626 -11.012 2.01
65.284 -11.018 2.028
64.196 -10.627 1.997
64.032 -10.393 1.991
74.494 -11.856 2.281
74.537 -11.622 2.281
74.82 -11.426 2.288
29.304 0.125 0.876
29.32 0.217 0.876
31.794 0.338 0.932
31.551 0.384 0.927
31.332 0.48 0.922
59.031 1.669 1.553
75.531 21.311 1.996
75.239 21.484 1.99
75.077 21.693 1.988
74.96 21.914 1.987
75.004 22.055 1.989
68.244 21.471 1.838
68.202 21.575 1.838
68.224 21.818 1.84
67.668 21.875 1.828
68.545 22.397 1.851
57.469 18.973 1.587
66.992 22.356 1.817
8.058 2.735 0.402
8.031 2.754 0.402
8.014 2.777 0.401
8.006 2.802 0.401
7.997 2.827 0.401
8.013 2.847 0.402
7.865 2.822 0.399
8.038 2.913 0.403
63.49 23.427 1.75
63.366 23.607 1.748
63.312 23.814 1.749
63.123 23.969 1.746
62.567 24.096 1.735
62.565 24.322 1.737
62.392 24.48 1.735
34.072 13.79 1.045
33.908 13.848 1.042
34.008 14.014 1.046
33.667 13.997 1.039
33.532 14.064 1.036
6.099 2.569 0.359
6.068 2.601 0.359
6.036 2.609 0.358
6.045 2.636 0.358
6.095 2.681 0.36
31.603 14.138 0.997
31.604 14.198 0.997
31.093 14.322 0.988
30.914 14.357 0.985
30.776 14.411 0.982
30.46 14.379 0.975
30.329 14.376 0.973
30.352 14.504 0.974
35.827 21.179 1.156
30.031 17.876 1.004
29.866 17.841 1.001
44.162 27.154 1.389
43.993 27.241 1.387
44.05 27.468 1.391
43.861 27.446 1.387
40.67 26.164 1.31
40.603 26.302 1.31
40.492 26.502 1.31
21.898 15.735 0.822
21.704 15.699 0.818
63.342 46.489 1.998
42.815 31.933 1.425
42.702 32.058 1.424
61.224 46.28 1.956
60.986 46.402 1.954
40.41 31.239 1.372
22.524 17.625 0.86
22.426 17.662 0.858
22.504 17.838 0.862
22.156 17.79 0.855
22.039 17.753 0.853
21.949 17.795 0.852
21.904 17.987 0.854
31.181 25.785 1.13
31.109 25.89 1.13
31.018 26.062 1.131
57.002 48.23 1.909
56.853 48.412 1.909
56.49 48.409 1.903
56.666 48.87 1.913
56.237 48.809 1.904
56.216 49.257 1.911
54.31 47.888 1.857
54.199 48.094 1.859
54.049 48.266 1.859
53.752 48.304 1.854
53.605 48.324 1.852
53.793 48.802 1.863
53.76 49.081 1.866
54.03 49.639 1.879
53.957 49.886 1.882
53.951 50.196 1.887
53.853 50.421 1.889
53.195 50.277 1.875
53.099 50.503 1.877
52.856 50.59 1.875
52.693 50.751 1.875
41.486 40.583 1.53
41.378 40.733 1.531
51.563 51.087 1.861
51.455 51.626 1.868
51.468 51.965 1.874
51.435 52.259 1.878
38.295 39.764 1.466
48.351 50.532 1.801
48.379 50.881 1.807
48.595 51.431 1.82
48.525 51.519 1.82
47.574 50.827 1.794
47.389 50.95 1.793
47.103 50.962 1.789
47.141 51.326 1.796
47.345 51.875 1.808
47.067 51.897 1.804
47.744 52.811 1.83
47.483 52.855 1.827
47.376 53.069 1.829
47.57 53.625 1.841
23.834 27.191 1.032
23.753 27.271 1.032
23.473 27.206 1.027
23.25 27.121 1.022
23.238 27.279 1.024
46.037 54.428 1.832
45.92 54.637 1.834
45.905 54.793 1.836
45.725 54.928 1.836
12.699 15.421 0.663
12.631 15.438 0.663
12.581 15.476 0.663
12.461 15.427 0.66
44.902 55.875 1.841
44.731 56.022 1.841
45.15 56.913 1.863
44.862 56.916 1.859
44.893 57.326 1.867
45.209 58.105 1.885
13.267 17.643 0.711
13.109 17.546 0.707
44.152 59.593 1.898
44.177 59.823 1.902
42.968 59.347 1.877
42.71 59.383 1.874
42.599 59.622 1.877
44.754 66.092 2.026
43.961 66.258 2.019
43.861 66.561 2.024
25.267 38.719 1.261
25.053 38.656 1.257
24.935 38.741 1.258
8.278 13.191 0.563
8.338 13.333 0.566
8.214 13.227 0.563
8.022 15.523 0.606
8.059 15.715 0.611
11.43 40.995 1.178
6.761 25.442 0.808
6.651 25.349 0.805
6.577 25.228 0.802
6.462 25.109 0.799
6.349 24.995 0.796
6.235 24.874 0.792
6.124 24.759 0.789
6.016 24.654 0.786
5.948 24.543 0.783
5.836 24.416 0.78
5.731 24.309 0.777
5.618 24.171 0.773
9.971 60.498 1.605
9.782 60.539 1.605
9.59 60.557 1.605
3.246 21.031 0.693
3.154 20.867 0.689
8.925 60.669 1.605
8.763 60.895 1.61
7.447 52.903 1.425
6.635 51.2 1.384
6.469 51.177 1.383
6.308 51.201 1.383
6.171 51.42 1.388
4.272 37.009 1.057
4.154 37.006 1.056
4.035 36.991 1.056
3.916 36.982 1.055
3.798 36.97 1.055
3.692 37.091 1.057
2.68 27.74 0.843
2.635 27.726 0.843
1.732 19.438 0.653
1.68 19.551 0.655
4.141 50.537 1.363
3.982 50.544 1.363
3.908 50.632 1.365
3.787 51.151 1.376
3.638 51.34 1.381
3.488 51.517 1.384
3.239 52.765 1.412
3.275 56.274 1.492
3.04 53.66 1.432
2.869 53.629 1.431
1.801 35.585 1.02
2.175 49.327 1.333
2.019 49.304 1.332
1.864 49.298 1.332
1.786 49.291 1.332
1.63 49.26 1.331
0.725 26.611 0.815
1.164 49.205 1.329
1.009 49.201 1.329
0.854 49.19 1.329
0.699 49.164 1.328
0.622 49.149 1.328
0.467 49.137 1.327
0.313 49.11 1.327
0.159 49.099 1.327
0.004 49.081 1.326
-0.15 49.069 1.326
-0.227 49.045 1.325
-0.381 49.04 1.325
-0.535 49.02 1.325
-0.688 49.006 1.325
-0.842 48.984 1.324
-0.996 48.971 1.324
-1.149 48.942 1.323
-1.226 48.942 1.323
-1.379 48.912 1.323
-1.533 48.911 1.323
-1.686 48.904 1.323
-1.839 48.879 1.322
-1.992 48.859 1.322
-2.145 48.846 1.322
-2.221 48.819 1.321
-2.374 48.816 1.321
-2.527 48.8 1.321
-2.68 48.788 1.321
-2.833 48.767 1.321
-2.986 48.748 1.321
-3.138 48.728 1.32
-3.214 48.721 1.32
-3.367 48.709 1.32
-3.52 48.694 1.32
-3.673 48.677 1.32
-3.825 48.657 1.32
-3.978 48.647 1.32
-4.13 48.628 1.32
-2.269 26.366 0.811
-2.351 26.346 0.811
-2.434 26.343 0.811
-3.56 35.955 1.031
-3.672 35.935 1.031
-3.744 36.081 1.034
-5.195 48.496 1.319
-5.35 48.497 1.32
-5.502 48.48 1.32
-5.653 48.455 1.319
-5.176 43.206 1.199
-5.958 48.424 1.32
-6.033 48.405 1.319
-6.185 48.384 1.319
-6.337 48.364 1.319
-6.489 48.348 1.319
-5.3 38.608 1.096
-5.423 38.601 1.096
-6.947 48.302 1.32
-7.023 48.287 1.32
-5.305 35.733 1.031
-7.329 48.266 1.32
-7.479 48.233 1.32
-7.633 48.221 1.32
-4.211 26.146 0.811
-4.294 26.139 0.812
-8.015 48.179 1.321
-8.166 48.152 1.321
-8.32 48.142 1.321
-8.474 48.135 1.321
-8.623 48.094 1.321
-8.774 48.069 1.321
-6.767 36.458 1.053
-6.822 36.435 1.053
-9.159 48.036 1.322
-9.314 48.028 1.323
-9.467 48.009 1.323
-9.622 48 1.323
-9.774 47.976 1.323
-9.927 47.957 1.324
-10.003 47.947 1.324
-5.273 24.944 0.789
-5.342 24.882 0.788
-5.424 24.883 0.788
-5.515 24.926 0.79
-8.202 36.469 1.06
-8.327 36.486 1.061
-8.381 36.459 1.06
-8.429 35.645 1.043
-8.541 35.619 1.043
-11.62 47.758 1.328
-11.776 47.744 1.328
-11.932 47.734 1.329
-12.008 47.717 1.329
-12.166 47.711 1.33
-12.317 47.678 1.33
-12.475 47.67 1.331
-12.626 47.634 1.331
-12.786 47.633 1.332
-12.938 47.602 1.332
-13.019 47.607 1.332
-10.405 37.603 1.097
-10.25 36.162 1.064
-10.327 36 1.061
-10.449 36 1.062
-10.565 35.977 1.062
-10.629 35.985 1.063
-10.694 35.791 1.059
-10.82 35.803 1.06
-10.944 35.805 1.061
-11.058 35.778 1.061
-11.17 35.741 1.061
-11.3 35.763 1.063
-11.355 35.74 1.062
-11.445 35.635 1.061
-11.601 35.736 1.064
-11.719 35.717 1.064
-11.842 35.71 1.065
-11.948 35.656 1.065
-12.122 35.802 1.069
-12.181 35.79 1.069
-12.309 35.797 1.07
-12.432 35.788 1.071
-12.549 35.762 1.071
-8.946 25.264 0.819
-8.957 25.045 0.814
-8.77 23.931 0.789
-8.84 23.888 0.788
-8.863 23.724 0.785
-14.113 37.372 1.118
-14.238 37.35 1.119
-14.392 37.4 1.121
-9.18 23.77 0.789
-9.246 23.719 0.788
-14.707 37.34 1.122
-14.838 37.327 1.123
-9.506 23.723 0.79
-9.58 23.692 0.79
-15.229 37.283 1.126
-15.3 37.291 1.126
-9.883 23.688 0.793
-15.658 37.161 1.127
-15.806 37.186 1.129
-10.203 23.615 0.794
-10.251 23.623 0.795
-16.295 37.194 1.133
-16.422 37.165 1.134
-16.555 37.15 1.135
-10.602 23.615 0.798
-16.812 37.1 1.136
-16.887 37.11 1.137
-17.022 37.096 1.138
-10.889 23.558 0.799
-17.147 36.757 1.132
-17.112 36.384 1.124
-11.229 23.512 0.802
-16.937 35.292 1.1
-17.045 35.233 1.1
-17.186 35.241 1.101
-11.532 23.48 0.804
-11.607 23.445 0.804
-23.218 46.473 1.392
-23.364 46.4 1.392
-22.235 43.989 1.331
-22.355 43.883 1.33
-22.763 44.339 1.343
-23.985 46.357 1.397
-22.642 43.431 1.324
-12.269 23.38 0.81
-22.955 43.364 1.326
-23.053 43.385 1.327
-24.769 46.258 1.403
-12.582 23.349 0.812
-23.696 43.597 1.338
-23.859 43.57 1.34
-25.491 46.203 1.41
-12.938 23.302 0.815
-12.988 23.306 0.816
-24.348 43.326 1.34
-23.764 41.978 1.307
-23.988 42.064 1.311
-13.344 23.252 0.819
-24.761 42.792 1.334
-25.434 43.638 1.359
-25.385 43.398 1.353
-13.662 23.213 0.822
-25.519 43.003 1.347
-26.082 43.638 1.366
-13.947 23.193 0.825
-27.051 44.305 1.391
-14.279 23.164 0.828
-14.361 23.134 0.828
-27.463 43.888 1.387
-23.067 36.614 1.194
-23.128 36.457 1.192
-14.735 23.085 0.832
-23.356 36.435 1.194
-15.744 24.407 0.87
-15.787 24.306 0.868
-15.077 23.057 0.836
-15.757 23.931 0.861
-15.382 23.045 0.839
-15.613 23.154 0.844
-15.59 22.965 0.84
-15.697 22.967 0.842
-31.534 45.476 1.469
-31.717 45.434 1.47
-31.843 45.463 1.472
-32.032 45.428 1.474
-32.229 45.404 1.476
-32.425 45.377 1.479
-24.044 33.438 1.146
-30.769 42.495 1.403
-30.758 42.34 1.4
-30.952 42.327 1.403
-31.079 42.221 1.402
-31.407 42.387 1.41
-31.558 42.312 1.41
-31.475 41.926 1.402
-31.527 41.722 1.399
-31.564 41.634 1.398
-31.722 41.571 1.399
-31.709 41.284 1.394
-34.87 45.101 1.507
-33.807 43.446 1.462
-35.28 45.044 1.511
-35.452 44.972 1.513
-35.69 44.982 1.516
-34.082 42.82 1.455
-28.907 36.091 1.261
-34.244 42.472 1.451
-34.362 42.346 1.45
-34.461 42.196 1.449
-36.875 44.861 1.531
-37.079 44.822 1.533
-34.288 41.318 1.431
-34.462 41.264 1.433
-37.639 44.777 1.541
-34.766 41.1 1.434
-38.063 44.708 1.546
-38.283 44.681 1.548
-38.429 44.709 1.551
-38.65 44.682 1.554
-38.889 44.673 1.557
-39.082 44.611 1.559
-39.301 44.578 1.562
-36.682 41.347 1.467
-39.735 44.503 1.567
-39.906 44.554 1.571
-37.039 41.095 1.468
-29.871 32.941 1.221
-40.587 44.463 1.579
-40.815 44.431 1.582
-41.022 44.376 1.585
-37.58 40.401 1.465
-41.411 44.375 1.591
-41.642 44.343 1.594
-41.874 44.31 1.597
-42.1 44.27 1.6
-42.326 44.228 1.603
-32.594 33.854 1.279
-32.58 33.628 1.275
-32.564 33.506 1.272
-32.626 33.36 1.271
-32.717 33.243 1.271
-32.825 33.144 1.271
-32.942 33.053 1.271
-33.097 33.001 1.273
-33.261 32.957 1.275
-33.431 33.021 1.279
-44.818 43.979 1.638
-45.049 43.928 1.641
-45.297 43.894 1.645
-45.545 43.857 1.648
-45.791 43.817 1.652
-46.047 43.786 1.656
-46.227 43.819 1.659
-46.473 43.775 1.662
-46.724 43.736 1.666
-46.985 43.704 1.67
-47.239 43.664 1.673
-47.496 43.626 1.677
-47.76 43.592 1.681
-47.914 43.595 1.684
-38.521 34.835 1.391
-48.467 43.545 1.692
-48.726 43.501 1.696
-48.991 43.462 1.7
-49.249 43.415 1.704
-49.519 43.377 1.708
-49.721 43.416 1.712
-49.99 43.375 1.716
-50.25 43.325 1.719
-50.525 43.285 1.724
-50.8 43.245 1.728
-51.067 43.197 1.732
-51.353 43.162 1.736
-51.562 43.199 1.74
-51.842 43.157 1.745
-52.122 43.114 1.749
-52.411 43.077 1.753
-52.692 43.031 1.758
-52.964 42.976 1.762
-28.81 23.318 1.052
-53.487 42.984 1.771
-53.762 42.928 1.775
-54.061 42.889 1.78
-54.336 42.829 1.784
-54.675 42.818 1.79
-46.426 34.291 1.523
-46.545 34.154 1.523
-58.189 42.409 1.848
-58.548 42.39 1.855
-46.985 33.8 1.527
-59.175 42.28 1.865
-59.42 42.314 1.87
-59.708 42.237 1.874
-62.613 43.995 1.951
-62.703 43.765 1.95
-47.509 32.946 1.525
-48.133 33.155 1.539
-47.893 32.769 1.53
-48.001 32.732 1.532
-48.334 32.737 1.538
-48.831 32.85 1.549
-61.92 41.085 1.901
-62.463 41.163 1.912
-61.926 40.392 1.892
-62.623 40.288 1.904
-63.283 40.152 1.915
-62.184 39.182 1.882
-62.412 39.052 1.885
-62.32 38.859 1.881
-61.536 38.102 1.857
-61.773 37.981 1.86
-63.148 38.281 1.89
-64.392 38.621 1.918
-63.353 37.729 1.888
-55.526 32.6 1.675
-56.955 30.613 1.681
-62.405 32.163 1.807
-62.351 31.887 1.803
-62.319 31.624 1.8
-62.336 31.387 1.798
-42.066 15.226 1.227
-55.621 19.239 1.549
-55.655 19.055 1.548
-56.805 14.395 1.543
-56.827 14.211 1.542
-56.84 14.025 1.542
-56.823 13.926 1.541
-56.828 13.738 1.54
-56.845 13.553 1.539
-56.843 13.364 1.538
-56.853 13.178 1.538
-56.863 12.992 1.537
-56.867 12.805 1.536
-56.85 12.708 1.535
-56.88 12.527 1.535
-56.886 12.341 1.534
-57.061 12.191 1.537
-56.962 11.983 1.534
-24.108 2.447 0.76
-24.091 2.369 0.76
-23.924 2.277 0.756
-24.122 2.219 0.76
-50.653 2.153 1.363
-64.957 -17.118 1.738
-64.192 -17.132 1.721
-64.018 -17.301 1.719
-63.892 -17.482 1.717
-50.553 -14.254 1.405
-63.237 -18.052 1.706
-63.061 -18.216 1.703
-62.807 -18.357 1.699
-62.644 -18.523 1.696
-62.468 -18.685 1.693
-61.508 -18.925 1.674
-61.373 -19.095 1.672
-61.224 -19.259 1.67
-61.176 -19.456 1.67
-61.16 -19.662 1.671
-61.085 -19.85 1.671
-33.981 -18.394 1.088
-33.786 -18.426 1.085
-48.405 -27.007 1.471
-48.249 -27.118 1.469
-48.112 -27.141 1.466
-47.961 -27.255 1.465
-47.793 -27.358 1.463
-47.615 -27.455 1.46
-47.463 -27.567 1.458
-47.283 -27.661 1.456
-24.196 -14.242 0.848
-24.134 -14.257 0.847
-24.105 -14.342 0.847
-46.69 -28.007 1.448
-46.538 -28.116 1.447
-46.369 -28.213 1.445
-46.218 -28.32 1.443
-46.093 -28.343 1.441
-45.943 -28.45 1.439
-45.782 -28.549 1.437
-45.626 -28.652 1.435
-45.463 -28.749 1.433
-45.296 -28.843 1.431
-45.148 -28.949 1.43
-45.034 -28.975 1.428
-44.872 -29.071 1.426
-44.722 -29.173 1.424
-44.565 -29.271 1.423
-44.408 -29.368 1.421
-44.252 -29.465 1.419
-44.098 -29.562 1.417
-43.998 -29.596 1.416
-43.847 -29.695 1.414
-43.703 -29.797 1.413
-43.543 -29.889 1.411
-43.385 -29.982 1.409
-43.233 -30.078 1.408
-43.081 -30.173 1.406
-42.971 -30.197 1.404
-42.832 -30.301 1.403
-42.676 -30.392 1.402
-42.53 -30.49 1.4
-42.387 -30.589 1.399
-42.23 -30.678 1.397
-42.078 -30.77 1.396
-41.988 -30.805 1.394
-41.841 -30.9 1.393
-41.688 -30.99 1.391
-41.536 -31.08 1.39
-41.396 -31.179 1.389
-41.234 -31.261 1.387
-41.111 -31.37 1.386
-41.033 -31.413 1.385
-40.882 -31.502 1.384
-40.92 -31.737 1.388
-40.927 -31.949 1.391
-40.919 -32.15 1.394
-40.914 -32.354 1.396
-40.974 -32.507 1.4
-40.965 -32.71 1.402
-40.959 -32.916 1.405
-40.967 -33.135 1.408
-40.948 -33.333 1.411
-40.953 -33.552 1.414
-40.961 -33.775 1.417
-41.007 -33.921 1.42
-41.003 -34.135 1.423
-41.012 -34.361 1.427
-40.997 -34.569 1.43
-40.995 -34.788 1.433
-20.673 -17.638 0.827
-20.675 -17.752 0.829
-20.287 -17.474 0.818
-20.193 -17.504 0.817
-20.228 -17.646 0.82
-20.214 -17.746 0.821
-20.19 -17.837 0.822
-20.213 -17.971 0.824
-20.24 -18.109 0.827
-20.069 -18.013 0.822
-20.295 -18.332 0.831
-20.014 -18.192 0.824
-19.864 -18.17 0.821
-19.6 -18.041 0.815
-19.555 -18.114 0.815
-19.621 -18.233 0.818
-19.723 -18.444 0.823
-19.677 -18.516 0.824
-19.491 -18.457 0.82
-19.299 -18.391 0.815
-19.122 -18.337 0.812
-18.767 -18.109 0.802
-18.761 -18.161 0.803
-18.97 -18.479 0.811
-18.61 -18.242 0.802
-18.62 -18.368 0.804
-18.665 -18.528 0.807
-18.505 -18.484 0.804
-18.734 -18.832 0.813
-21.429 -21.614 0.901
-21.371 -21.691 0.902
-18.458 -18.848 0.809
-17.914 -18.407 0.793
-17.837 -18.443 0.793
-17.847 -18.57 0.795
-17.755 -18.591 0.794
-17.584 -18.469 0.789
-17.527 -18.526 0.789
-17.351 -18.456 0.785
-17.256 -18.471 0.784
-17.193 -18.519 0.784
-17.278 -18.729 0.789
-17.214 -18.777 0.788
-18.002 -19.701 0.816
-17.994 -19.816 0.818
-17.865 -19.799 0.816
-19.061 -21.261 0.859
-18.981 -21.306 0.858
-15.809 -17.852 0.751
-18.786 -21.356 0.856
-15.515 -17.687 0.744
-15.33 -17.586 0.74
-15.414 -17.796 0.745
-15.708 -18.251 0.757
-14.965 -17.497 0.733
-15.043 -17.701 0.737
-15.085 -17.807 0.74
-14.926 -17.732 0.736
-15.211 -18.187 0.748
-14.842 -17.859 0.737
-14.612 -17.695 0.731
-14.551 -17.734 0.731
-14.576 -17.879 0.734
-14.505 -17.849 0.732
-14.462 -17.91 0.733
-14.294 -17.817 0.729
-14.145 -17.744 0.725
-14.199 -17.928 0.729
-14.076 -17.888 0.727
-14.143 -18.089 0.731
-14.96 -19.199 0.763
-14.947 -19.308 0.764
-14.147 -18.39 0.737
-13.972 -18.282 0.732
-14.209 -18.715 0.743
-14.123 -18.722 0.742
-14.004 -18.687 0.74
-13.958 -18.686 0.739
-13.966 -18.82 0.742
-13.883 -18.832 0.741
-13.829 -18.882 0.741
-13.892 -19.095 0.746
-14.193 -19.638 0.76
-14.096 -19.569 0.758
-14.138 -19.758 0.762
-14.158 -19.918 0.765
-28.317 -40.15 1.327
-28.182 -40.225 1.327
-28.035 -40.284 1.326
-27.904 -40.365 1.326
-27.838 -40.406 1.326
-27.721 -40.508 1.326
-27.627 -40.645 1.328
-27.513 -40.751 1.328
-13.817 -20.582 0.773
-13.765 -20.643 0.773
-13.71 -20.701 0.774
-13.434 -20.354 0.764
-13.391 -20.428 0.765
-13.379 -20.55 0.767
-13.334 -20.622 0.768
-13.475 -20.986 0.776
-13.454 -21.099 0.778
-13.382 -21.133 0.778
-13.393 -21.223 0.78
-13.328 -21.417 0.783
-14.232 -23.035 0.825
-14.065 -22.924 0.821
-13.868 -22.763 0.815
-12.639 -20.89 0.764
-12.617 -20.927 0.765
-12.596 -21.042 0.767
-12.543 -21.103 0.767
-12.46 -21.115 0.767
-12.372 -21.116 0.766
-13.27 -22.817 0.809
-12.608 -21.756 0.781
-12.509 -21.742 0.78
-12.331 -21.588 0.775
-12.158 -21.44 0.77
-12.211 -21.693 0.775
-12.203 -21.839 0.778
-12.019 -21.67 0.773
-12.053 -21.813 0.776
-11.981 -21.843 0.776
-11.885 -21.83 0.774
-11.813 -21.862 0.774
-11.77 -21.947 0.775
-11.726 -22.031 0.777
-11.737 -22.22 0.781
-11.502 -21.858 0.771
-11.411 -21.849 0.77
-11.335 -21.873 0.769
-11.241 -21.858 0.768
-12.081 -23.679 0.814
-12.025 -23.753 0.815
-11.374 -22.552 0.784
-11.298 -22.578 0.783
-11.246 -22.651 0.784
-11.674 -23.702 0.81
-11.492 -23.518 0.804
-11.51 -23.745 0.809
-11.299 -23.496 0.802
-11.183 -23.349 0.798
-11.157 -23.484 0.8
-11.072 -23.495 0.8
-11.028 -23.593 0.801
-10.937 -23.591 0.801
-10.888 -23.682 0.802
-10.837 -23.767 0.803
-10.843 -23.879 0.806
-10.734 -23.838 0.804
-10.595 -23.727 0.8
-14.749 -33.337 1.039
-10.504 -23.927 0.803
-10.346 -23.769 0.799
-10.152 -23.626 0.794
-10.085 -23.675 0.794
-24.248 -57.52 1.63
-24.105 -57.686 1.632
-23.977 -57.889 1.635
-23.724 -57.792 1.631
-23.648 -57.864 1.632
-23.465 -57.936 1.632
-23.295 -58.039 1.633
-23.195 -58.32 1.638
-22.982 -58.317 1.636
-22.903 -58.657 1.642
-26.606 -68.791 1.888
-26.507 -68.855 1.889
-26.31 -68.988 1.89
-25.288 -69.573 1.894
-25.192 -69.649 1.895
-24.986 -69.763 1.896
-3.519 -11.058 0.473
-3.572 -11.35 0.479
-3.575 -11.487 0.482
-8.465 -27.625 0.866
-8.343 -27.536 0.864
-8.23 -27.474 0.861
-8.157 -27.384 0.859
-8.038 -27.298 0.856
-7.945 -27.3 0.856
-7.869 -27.359 0.857
-7.746 -27.251 0.854
-21.251 -75.836 2.002
-21.062 -76.084 2.006
-20.686 -75.184 1.984
-19.899 -74.138 1.957
-19.567 -74.774 1.969
-19.324 -74.806 1.968
-18.91 -74.654 1.962
-18.638 -74.562 1.959
-18.066 -74.254 1.949
-18.104 -75.442 1.975
-4.343 -20.093 0.676
-4.366 -20.672 0.689
-4.272 -20.545 0.686
-4.209 -20.566 0.686
-4.156 -20.636 0.688
-4.041 -20.74 0.69
-6.931 -35.975 1.043
-6.549 -34.572 1.01
-6.438 -34.579 1.009
-6.347 -34.695 1.012
-6.246 -34.762 1.013
-6.097 -34.555 1.007
-6.056 -35.295 1.024
-5.933 -35.243 1.022
-6.233 -37.757 1.08
-5.652 -34.906 1.014
-5.53 -34.849 1.012
-5.293 -34.04 0.993
-5.229 -33.983 0.991
-5.127 -34.031 0.992
-3.202 -22.132 0.718
-4.808 -34.092 0.992
-4.703 -34.116 0.993
-4.592 -34.109 0.992
-4.587 -34.479 1
-4.58 -36.176 1.039
-4.244 -34.38 0.997
-4.109 -34.161 0.992
-3.946 -33.703 0.981
-3.851 -33.804 0.983
-3.8 -33.836 0.984
-3.694 -33.85 0.984
-3.607 -34.041 0.988
-3.613 -35.166 1.013
