ply
format ascii 1.0
comment Created by Open3D
element vertex 1758
property double x
property double y
property double z
end_header
-0.00197545 -0.30739 -0.0198197
2.35201 34.289 -0.832623
-0.00197545 -0.30739 -0.0198197
6.0397 87.8244 2.01151
-0.00197545 -0.30739 -0.0198197
-0.00197545 -0.30739 -0.0198197
-0.00197545 -0.30739 -0.0198197
-0.00197545 -0.30739 -0.0198197
-0.00197545 -0.30739 -0.0198197
-0.00197545 -0.30739 -0.0198197
-0.00197545 -0.30739 -0.0198197
0.0383289 0.252282 -0.352498
0.0368355 0.228542 -0.321655
0.0409678 0.284703 -0.335411
0.0422279 0.298947 -0.325047
0.0430649 0.307725 -0.311711
0.0447342 0.328801 -0.303842
0.0483836 0.375711 -0.305932
0.31241 3.93416 -1.68157
0.33106 4.17579 -1.65701
0.355398 4.48059 -1.64321
0.382721 4.82349 -1.62648
0.412925 5.21394 -1.60868
0.452134 5.70819 -1.6004
0.495233 6.26535 -1.58305
0.548907 6.94125 -1.5666
0.611379 7.72749 -1.53981
0.65163 8.75529 -1.51461
0.746973 10.0535 -1.48202
0.880312 11.8399 -1.4446
1.09648 14.7451 -1.43118
1.43073 19.2804 -1.39749
1.9355 26.0569 -1.25841
2.55555 34.3331 -0.833884
-0.00199496 -0.306982 -0.0197936
-0.00199496 -0.306982 -0.0197936
-0.00199496 -0.306982 -0.0197936
-0.00199496 -0.306982 -0.0197936
-0.00199496 -0.306982 -0.0197936
-0.00199496 -0.306982 -0.0197936
-0.00199496 -0.306982 -0.0197936
-0.00199496 -0.306982 -0.0197936
-0.00199496 -0.306982 -0.0197936
0.0414595 0.250614 -0.351458
0.0409947 0.242571 -0.329472
0.0438298 0.27781 -0.331627
0.0465686 0.309845 -0.330402
0.0471769 0.31501 -0.315112
0.0498117 0.345278 -0.311142
0.0525066 0.377653 -0.306676
0.334963 3.90854 -1.67207
0.357782 4.17599 -1.65766
0.382779 4.47701 -1.64253
0.412269 4.82159 -1.62644
0.445202 5.20604 -1.60699
0.48628 5.70008 -1.59884
0.534592 6.26649 -1.58394
0.592077 6.9403 -1.56697
0.659401 7.72802 -1.54051
0.704448 8.75967 -1.51586
0.808935 10.0552 -1.48281
0.951209 11.8469 -1.44594
1.18398 14.7488 -1.43206
1.54615 19.262 -1.39673
2.09114 26.0934 -1.26057
-0.00195474 -0.30668 -0.0197739
-0.00195474 -0.30668 -0.0197739
-0.00195474 -0.30668 -0.0197739
-0.00195474 -0.30668 -0.0197739
-0.00195474 -0.30668 -0.0197739
-0.00195474 -0.30668 -0.0197739
-0.00195474 -0.30668 -0.0197739
-0.00195474 -0.30668 -0.0197739
-0.00195474 -0.30668 -0.0197739
-0.00195474 -0.30668 -0.0197739
0.0448789 0.252456 -0.352452
0.0440658 0.241011 -0.328463
0.0477562 0.283131 -0.334422
0.0511352 0.320589 -0.335764
0.0510278 0.316944 -0.315938
0.0533822 0.343588 -0.310299
0.0573486 0.386917 -0.310504
0.359112 3.89763 -1.66839
0.384125 4.17984 -1.65968
0.411184 4.47503 -1.64249
0.443026 4.82324 -1.6276
0.477652 5.21137 -1.60916
0.522117 5.69936 -1.59931
0.572808 6.26755 -1.58482
0.633635 6.93517 -1.56651
0.706198 7.73028 -1.54158
0.758252 8.7557 -1.51582
0.870453 10.0724 -1.48583
1.02347 11.8434 -1.44612
1.27347 14.7439 -1.43219
1.66107 19.279 -1.39848
2.25181 26.1288 -1.26273
-0.00197425 -0.306272 -0.0197478
-0.00197425 -0.306272 -0.0197478
-0.00197425 -0.306272 -0.0197478
-0.00197425 -0.306272 -0.0197478
-0.00197425 -0.306272 -0.0197478
-0.00197425 -0.306272 -0.0197478
-0.00197425 -0.306272 -0.0197478
-0.00197425 -0.306272 -0.0197478
-0.00197425 -0.306272 -0.0197478
-0.00197425 -0.306272 -0.0197478
0.0476011 0.247488 -0.34936
0.0475791 0.244505 -0.330402
0.0503112 0.274465 -0.329698
0.0557018 0.331333 -0.341125
0.0554462 0.325996 -0.320194
0.0579592 0.352716 -0.314343
0.0623304 0.397989 -0.315105
0.383162 3.89399 -1.66763
0.410149 4.17978 -1.66033
0.438664 4.47294 -1.64246
0.472024 4.81531 -1.62577
0.509599 5.21085 -1.60968
0.557365 5.70443 -1.6013
0.610106 6.25871 -1.5834
0.67626 6.94144 -1.56856
0.753001 7.73239 -1.54265
0.811102 8.7594 -1.51707
0.930745 10.0735 -1.48662
1.09438 11.8475 -1.44724
1.3607 14.7426 -1.43269
1.77564 19.2893 -1.39981
2.4062 26.1396 -1.26378
3.16639 34.356 -0.835277
-0.00199376 -0.305864 -0.0197217
-0.00199376 -0.305864 -0.0197217
-0.00199376 -0.305864 -0.0197217
-0.00199376 -0.305864 -0.0197217
-0.00199376 -0.305864 -0.0197217
-0.00199376 -0.305864 -0.0197217
-0.00199376 -0.305864 -0.0197217
-0.00199376 -0.305864 -0.0197217
-0.00199376 -0.305864 -0.0197217
0.0514635 0.254392 -0.353419
0.0517226 0.255042 -0.336255
0.0548667 0.286817 -0.336248
0.0607754 0.345556 -0.348284
0.0611258 0.347618 -0.330441
0.0631422 0.365508 -0.320011
0.0680043 0.414498 -0.322021
0.407217 3.89022 -1.66687
0.436565 4.1758 -1.65961
0.466396 4.47258 -1.64307
0.501922 4.81662 -1.62693
0.54249 5.21002 -1.61019
0.591675 5.69757 -1.60025
0.649068 6.25536 -1.58336
0.7191 6.93577 -1.5681
0.800937 7.73005 -1.54298
0.862428 8.7451 -1.51541
0.992681 10.0722 -1.48712
1.16532 11.8513 -1.44835
1.44923 14.7547 -1.43449
1.89159 19.2749 -1.39946
2.55912 26.1316 -1.26398
-0.00201326 -0.305456 -0.0196956
-0.00201326 -0.305456 -0.0196956
-0.00201326 -0.305456 -0.0196956
-0.00201326 -0.305456 -0.0196956
-0.00201326 -0.305456 -0.0196956
-0.00201326 -0.305456 -0.0196956
-0.00201326 -0.305456 -0.0196956
4.09299 40.9416 5.79678
-0.00201326 -0.305456 -0.0196956
-0.00201326 -0.305456 -0.0196956
0.0547949 0.25444 -0.353394
0.0553956 0.258625 -0.338185
0.0596416 0.299153 -0.342797
0.0638641 0.338519 -0.344662
0.0666572 0.363812 -0.338119
0.0682448 0.376383 -0.324869
0.0732384 0.423561 -0.325856
0.432456 3.89187 -1.66829
0.462801 4.16971 -1.65821
0.495204 4.47384 -1.64431
0.533514 4.82534 -1.63047
0.575878 5.21275 -1.61181
0.627855 5.70019 -1.60173
0.688967 6.26152 -1.58563
0.761846 6.92976 -1.56764
0.847982 7.71968 -1.54183
0.916901 8.74803 -1.51666
1.05475 10.0704 -1.48764
1.23908 11.8603 -1.45016
1.53963 14.7561 -1.43537
2.00979 19.2835 -1.4008
-0.00197304 -0.305154 -0.0196759
-0.00197304 -0.305154 -0.0196759
-0.00197304 -0.305154 -0.0196759
-0.00197304 -0.305154 -0.0196759
-0.00197304 -0.305154 -0.0196759
-0.00197304 -0.305154 -0.0196759
-0.00197304 -0.305154 -0.0196759
-0.00197304 -0.305154 -0.0196759
4.33605 40.9012 5.79468
-0.00197304 -0.305154 -0.0196759
-0.00197304 -0.305154 -0.0196759
0.056808 0.244262 -0.347243
0.0568742 0.243075 -0.329339
0.0643632 0.311458 -0.349347
0.0672745 0.336734 -0.34374
0.0723886 0.381713 -0.346656
0.0738209 0.392719 -0.332167
0.0804831 0.452919 -0.338166
0.456086 3.8916 -1.66899
0.488405 4.173 -1.66023
0.522264 4.47511 -1.64556
0.562733 4.82841 -1.63222
0.60649 5.20791 -1.61123
0.660789 5.69112 -1.60017
0.725034 6.25212 -1.5842
0.802626 6.92973 -1.56843
0.892848 7.71517 -1.54179
0.968307 8.75106 -1.51791
1.11394 10.0765 -1.48926
1.30742 11.8576 -1.45057
1.62525 14.7615 -1.43661
2.12197 19.2981 -1.40255
2.86416 26.107 -1.2641
3.7725 34.3668 -0.836618
-0.00199255 -0.304746 -0.0196498
-0.00199255 -0.304746 -0.0196498
-0.00199255 -0.304746 -0.0196498
-0.00199255 -0.304746 -0.0196498
-0.00199255 -0.304746 -0.0196498
-0.00199255 -0.304746 -0.0196498
-0.00199255 -0.304746 -0.0196498
-0.00199255 -0.304746 -0.0196498
-0.00199255 -0.304746 -0.0196498
0.0602871 0.245997 -0.348237
0.0601524 0.243093 -0.329314
0.0678266 0.309701 -0.348381
0.0724801 0.349154 -0.349996
0.078499 0.399687 -0.355185
0.079283 0.405388 -0.337836
0.20453 1.49416 -0.776192
0.481205 3.89103 -1.66968
0.514402 4.17237 -1.66088
0.550594 4.47238 -1.64552
0.592535 4.81967 -1.63039
0.638846 5.21049 -1.61284
0.696564 5.68938 -1.60064
0.763248 6.25206 -1.58509
0.844796 6.92922 -1.56922
0.938745 7.70841 -1.54137
1.02226 8.74746 -1.5182
1.17459 10.0782 -1.49033
1.38245 11.8757 -1.45354
1.71556 14.7599 -1.4373
2.23988 19.3295 -1.40556
-0.00195883 -0.304308 -0.0196215
3.9782 34.3442 -0.836518
-0.00195883 -0.304308 -0.0196215
-0.00195883 -0.304308 -0.0196215
-0.00195883 -0.304308 -0.0196215
-0.00195883 -0.304308 -0.0196215
-0.00195883 -0.304308 -0.0196215
-0.00195883 -0.304308 -0.0196215
-0.00195883 -0.304308 -0.0196215
-0.00195883 -0.304308 -0.0196215
-0.00195883 -0.304308 -0.0196215
0.0642624 0.252824 -0.352295
0.0635248 0.244767 -0.330273
0.0704756 0.302687 -0.344596
0.0769043 0.354326 -0.352669
0.0866562 0.433582 -0.371431
0.0868832 0.434285 -0.350833
0.213578 1.48227 -0.771539
0.506497 3.89776 -1.67329
0.53972 4.16604 -1.65947
0.578113 4.46948 -1.64549
0.621657 4.81268 -1.62917
0.670653 5.20705 -1.61281
0.732031 5.69331 -1.60263
0.800027 6.24022 -1.5832
0.88596 6.92076 -1.56835
0.985137 7.7052 -1.5417
1.07535 8.74962 -1.51945
1.23484 10.0756 -1.49084
1.45404 11.8797 -1.45488
1.80415 14.766 -1.43873
2.35462 19.3305 -1.40647
3.18979 26.2134 -1.27058
-0.00197834 -0.3039 -0.0195955
-0.00197834 -0.3039 -0.0195955
-0.00197834 -0.3039 -0.0195955
-0.00197834 -0.3039 -0.0195955
-0.00197834 -0.3039 -0.0195955
-0.00197834 -0.3039 -0.0195955
-0.00197834 -0.3039 -0.0195955
-0.00197834 -0.3039 -0.0195955
-0.00197834 -0.3039 -0.0195955
-0.00197834 -0.3039 -0.0195955
0.0655663 0.237435 -0.343086
0.0659815 0.239657 -0.327302
0.0730714 0.295644 -0.340813
0.0825295 0.368439 -0.359824
0.0924588 0.446039 -0.377394
0.0946758 0.461279 -0.363017
0.223897 1.48134 -0.771514
0.530665 3.89521 -1.67325
0.566447 4.16498 -1.66012
0.605393 4.46458 -1.64481
0.652324 4.81888 -1.63211
0.703291 5.20338 -1.61277
0.76557 5.68175 -1.60057
0.84062 6.24921 -1.5864
0.929306 6.91965 -1.56914
1.03244 7.69755 -1.54129
1.12821 8.74952 -1.52038
1.29792 10.0802 -1.49247
1.52522 11.8793 -1.45576
1.8927 14.7696 -1.43997
2.47285 19.3304 -1.40739
3.34753 26.2345 -1.27237
-0.00193812 -0.303598 -0.0195758
-0.00193812 -0.303598 -0.0195758
-0.00193812 -0.303598 -0.0195758
-0.00193812 -0.303598 -0.0195758
-0.00193812 -0.303598 -0.0195758
-0.00193812 -0.303598 -0.0195758
-0.00193812 -0.303598 -0.0195758
-0.00193812 -0.303598 -0.0195758
-0.00193812 -0.303598 -0.0195758
-0.00193812 -0.303598 -0.0195758
0.0703105 0.249366 -0.350202
0.0690123 0.237795 -0.326302
0.0766819 0.295568 -0.340787
0.0867194 0.370145 -0.360692
0.0950535 0.431516 -0.370519
-0.00195763 -0.30319 -0.0195497
0.235427 1.48773 -0.774567
0.554872 3.88681 -1.67104
0.592656 4.16577 -1.66146
0.634917 4.47071 -1.64798
0.68223 4.8115 -1.63089
0.736032 5.20719 -1.61494
0.802636 5.68902 -1.60357
0.878622 6.24662 -1.58682
0.971454 6.91843 -1.56993
1.07952 7.6997 -1.54273
1.18345 8.75474 -1.52229
1.35974 10.0887 -1.49465
1.59957 11.8862 -1.45757
1.98291 14.7644 -1.44047
2.5877 19.3301 -1.4083
3.50891 26.2443 -1.27369
-0.00195763 -0.30319 -0.0195497
-0.00195763 -0.30319 -0.0195497
-0.00195763 -0.30319 -0.0195497
-0.00195763 -0.30319 -0.0195497
-0.00195763 -0.30319 -0.0195497
-0.00195763 -0.30319 -0.0195497
-0.00195763 -0.30319 -0.0195497
-0.00195763 -0.30319 -0.0195497
-0.00195763 -0.30319 -0.0195497
-0.00195763 -0.30319 -0.0195497
0.0728198 0.24428 -0.347111
0.0725788 0.241318 -0.32823
0.0801327 0.295403 -0.340766
0.0898487 0.364728 -0.357971
0.103116 0.460013 -0.384188
-0.00197714 -0.302782 -0.0195236
0.244208 1.47569 -0.769914
0.579578 3.8932 -1.67464
0.618438 4.16259 -1.66143
0.661823 4.46932 -1.64858
0.711303 4.81178 -1.63204
0.768534 5.20901 -1.61656
0.835826 5.68283 -1.60303
0.915809 6.23788 -1.58586
1.01235 6.91706 -1.57073
1.12476 7.69782 -1.54343
1.23563 8.74817 -1.52224
1.42097 10.0908 -1.496
1.67219 11.8949 -1.45961
2.0732 14.7787 -1.44284
2.70509 19.3469 -1.41047
3.66396 26.2399 -1.27435
4.76997 34.2052 -0.83518
-0.00197714 -0.302782 -0.0195236
-0.00197714 -0.302782 -0.0195236
-0.00197714 -0.302782 -0.0195236
-0.00197714 -0.302782 -0.0195236
-0.00197714 -0.302782 -0.0195236
-0.00197714 -0.302782 -0.0195236
-0.00197714 -0.302782 -0.0195236
-0.00197714 -0.302782 -0.0195236
-0.00197714 -0.302782 -0.0195236
0.0760859 0.245895 -0.348109
0.0768604 0.24991 -0.333104
0.0843381 0.3006 -0.343555
0.0930717 0.360961 -0.356155
0.110564 0.481226 -0.394436
-0.00193692 -0.30248 -0.0195039
0.254973 1.47833 -0.771425
0.603466 3.88835 -1.67388
0.643869 4.15749 -1.66071
0.689654 4.46189 -1.64727
0.742144 4.81166 -1.6332
0.8014 5.21247 -1.61873
0.871594 5.6801 -1.60349
0.954285 6.23087 -1.58535
1.057 6.915 -1.57152
1.17276 7.69526 -1.54412
1.28753 8.75135 -1.52381
1.48134 10.0868 -1.49651
1.74257 11.9014 -1.46142
2.15713 14.7653 -1.4426
2.82249 19.361 -1.4125
3.82451 26.2721 -1.27679
-0.00193692 -0.30248 -0.0195039
5.74786 39.4862 -0.0273155
-0.00193692 -0.30248 -0.0195039
-0.00193692 -0.30248 -0.0195039
-0.00193692 -0.30248 -0.0195039
-0.00193692 -0.30248 -0.0195039
-0.00193692 -0.30248 -0.0195039
-0.00193692 -0.30248 -0.0195039
-0.00193692 -0.30248 -0.0195039
-0.00193692 -0.30248 -0.0195039
0.0801927 0.250912 -0.351143
0.0794898 0.244618 -0.330139
0.0881491 0.302237 -0.344466
0.097628 0.36433 -0.357922
0.112798 0.464906 -0.386701
-0.00195643 -0.302072 -0.0194778
0.26613 1.48077 -0.772941
0.628324 3.88508 -1.67385
0.671472 4.16139 -1.66341
0.718433 4.4676 -1.65044
0.770488 4.8001 -1.63078
0.833295 5.20225 -1.61704
0.907516 5.68488 -1.60599
0.992802 6.23142 -1.5867
1.09733 6.90934 -1.57148
1.22005 7.69655 -1.54556
1.34429 8.75335 -1.5254
1.54418 10.086 -1.49757
1.81881 11.9027 -1.46276
2.24918 14.7522 -1.44254
2.95157 19.4271 -1.4183
-0.00195643 -0.302072 -0.0194778
5.17325 34.1478 -0.834979
-0.00195643 -0.302072 -0.0194778
-0.00195643 -0.302072 -0.0194778
-0.00195643 -0.302072 -0.0194778
-0.00195643 -0.302072 -0.0194778
-0.00195643 -0.302072 -0.0194778
-0.00195643 -0.302072 -0.0194778
-0.00195643 -0.302072 -0.0194778
-0.00195643 -0.302072 -0.0194778
-0.00195643 -0.302072 -0.0194778
0.0843939 0.257585 -0.355202
0.0830628 0.248005 -0.332072
0.090419 0.29515 -0.340682
0.100291 0.357054 -0.354306
0.119159 0.477116 -0.392667
-0.00197594 -0.301664 -0.0194516
0.276628 1.48325 -0.774457
0.652119 3.8799 -1.67309
0.696318 4.15223 -1.66132
0.744443 4.4544 -1.6472
0.800112 4.79786 -1.63134
0.865286 5.19965 -1.61755
0.943498 5.68955 -1.60848
1.02986 6.22204 -1.58574
1.14009 6.90309 -1.57144
1.26755 7.68945 -1.54553
1.39515 8.74802 -1.52568
1.60488 10.0833 -1.49836
1.8909 11.9183 -1.46572
2.33445 14.7476 -1.44323
3.06918 19.4357 -1.42006
4.13226 26.2388 -1.27719
5.36979 34.106 -0.834597
-0.00197594 -0.301664 -0.0194516
-0.00197594 -0.301664 -0.0194516
-0.00197594 -0.301664 -0.0194516
-0.00197594 -0.301664 -0.0194516
-0.00197594 -0.301664 -0.0194516
-0.00197594 -0.301664 -0.0194516
-0.00197594 -0.301664 -0.0194516
-0.00197594 -0.301664 -0.0194516
-0.00197594 -0.301664 -0.0194516
0.0868564 0.252332 -0.352116
0.0852189 0.240985 -0.328126
0.0939828 0.294908 -0.34066
0.105607 0.365641 -0.358769
0.122601 0.469587 -0.38922
-0.00199545 -0.301256 -0.0194255
0.286627 1.4784 -0.77288
0.677236 3.87821 -1.67378
0.722505 4.15231 -1.66265
0.773276 4.45399 -1.64845
0.830979 4.79719 -1.63249
0.898178 5.20257 -1.61972
0.976873 5.67079 -1.6049
1.06804 6.22028 -1.58662
1.18312 6.90651 -1.57347
1.3158 7.69597 -1.54808
1.44981 8.74584 -1.52661
1.66693 10.0878 -1.50026
1.96625 11.9249 -1.46776
2.42467 14.7397 -1.44373
3.18952 19.4595 -1.42292
4.29354 26.2378 -1.27823
5.56971 34.0482 -0.833886
6.43251 39.3257 -0.0269643
-0.00199545 -0.301256 -0.0194255
-0.00199545 -0.301256 -0.0194255
-0.00199545 -0.301256 -0.0194255
-0.00199545 -0.301256 -0.0194255
-0.00199545 -0.301256 -0.0194255
-0.00199545 -0.301256 -0.0194255
-0.00199545 -0.301256 -0.0194255
-0.00199545 -0.301256 -0.0194255
0.0894601 0.248903 -0.350043
0.0889049 0.244296 -0.33006
0.0979942 0.298257 -0.34251
0.109444 0.365412 -0.358742
0.127042 0.469277 -0.389191
-0.00195523 -0.300954 -0.0194058
0.295947 1.47158 -0.770541
0.700385 3.86907 -1.67156
0.747855 4.1466 -1.66193
0.801291 4.45355 -1.64969
0.861386 4.79826 -1.63425
0.930188 5.19956 -1.62023
1.01258 5.67304 -1.60689
1.10754 6.22582 -1.58936
1.22465 6.89984 -1.57344
1.36183 7.68861 -1.54804
1.50283 8.74359 -1.52753
1.72835 10.0882 -1.50161
2.03732 11.9176 -1.46818
2.51355 14.7397 -1.44497
3.30821 19.4707 -1.42496
4.45162 26.2446 -1.27964
5.76749 34.0159 -0.833785
-0.00195523 -0.300954 -0.0194058
-0.00195523 -0.300954 -0.0194058
-0.00195523 -0.300954 -0.0194058
-0.00195523 -0.300954 -0.0194058
-0.00195523 -0.300954 -0.0194058
-0.00195523 -0.300954 -0.0194058
-0.00195523 -0.300954 -0.0194058
-0.00195523 -0.300954 -0.0194058
-0.00195523 -0.300954 -0.0194058
0.0920703 0.245337 -0.347977
0.0914623 0.240705 -0.328075
0.102993 0.306678 -0.347185
0.113894 0.368721 -0.360507
0.133016 0.4778 -0.393445
-0.00197474 -0.300546 -0.0193797
0.308049 1.48118 -0.775136
0.724391 3.86532 -1.67153
0.773816 4.14441 -1.66258
0.828655 4.4493 -1.64965
0.891388 4.79738 -1.6354
0.960852 5.18878 -1.61854
1.04865 5.67705 -1.60939
1.14375 6.21213 -1.58747
1.26682 6.89695 -1.57423
1.40952 7.6907 -1.54985
1.55696 8.74679 -1.52944
1.78985 10.0882 -1.50295
2.11142 11.9276 -1.47068
2.60222 14.7372 -1.44603
3.4275 19.4832 -1.42712
4.61239 26.2641 -1.28171
5.9781 34.0574 -0.835458
-0.00197474 -0.300546 -0.0193797
-0.00197474 -0.300546 -0.0193797
-0.00197474 -0.300546 -0.0193797
-0.00197474 -0.300546 -0.0193797
-0.00197474 -0.300546 -0.0193797
-0.00197474 -0.300546 -0.0193797
-0.00197474 -0.300546 -0.0193797
-0.00197474 -0.300546 -0.0193797
-0.00197474 -0.300546 -0.0193797
0.0958164 0.248546 -0.349993
0.0945872 0.240497 -0.328052
0.106443 0.306512 -0.347155
0.115837 0.357847 -0.355097
0.136238 0.470288 -0.389994
-0.00194102 -0.300108 -0.0193514
0.317981 1.47788 -0.77434
0.749063 3.86511 -1.67295
0.800554 4.14195 -1.66324
0.857751 4.45406 -1.65283
0.920394 4.79065 -1.63477
0.994111 5.18721 -1.6196
1.08168 5.66366 -1.60732
1.18412 6.21519 -1.58973
1.31016 6.89359 -1.57502
1.4562 7.67876 -1.54906
1.60972 8.74198 -1.53004
1.8522 10.0817 -1.50346
2.18392 11.9273 -1.47202
2.69196 14.7399 -1.44765
3.54418 19.4589 -1.42678
4.77553 26.2946 -1.28433
6.17767 34.0326 -0.835592
-0.00194102 -0.300108 -0.0193514
-0.00194102 -0.300108 -0.0193514
-0.00194102 -0.300108 -0.0193514
-0.00194102 -0.300108 -0.0193514
-0.00194102 -0.300108 -0.0193514
-0.00194102 -0.300108 -0.0193514
7.38938 40.29 5.77143
-0.00194102 -0.300108 -0.0193514
-0.00194102 -0.300108 -0.0193514
0.0991075 0.248291 -0.34997
0.0981322 0.241987 -0.329007
0.10914 0.300985 -0.344314
0.121686 0.36805 -0.360458
0.141825 0.475125 -0.392538
-0.00196053 -0.299699 -0.0193253
0.328904 1.47818 -0.77508
0.772723 3.85556 -1.67073
0.826415 4.13955 -1.66388
0.884186 4.43998 -1.64959
0.951651 4.79108 -1.63652
1.02639 5.18551 -1.62067
1.11776 5.66129 -1.6083
1.22025 6.20088 -1.58785
1.35341 6.89587 -1.57706
1.50403 7.68023 -1.55087
1.66444 8.73844 -1.53097
1.91482 10.0868 -1.50564
2.25933 11.9302 -1.47383
2.78735 14.7574 -1.45075
3.65755 19.4366 -1.42656
4.93691 26.2858 -1.28518
6.39448 34.0665 -0.83717
-0.00196053 -0.299699 -0.0193253
-0.00196053 -0.299699 -0.0193253
-0.00196053 -0.299699 -0.0193253
-0.00196053 -0.299699 -0.0193253
-0.00196053 -0.299699 -0.0193253
-0.00196053 -0.299699 -0.0193253
7.63664 40.3191 5.78183
-0.00196053 -0.299699 -0.0193253
-0.00196053 -0.299699 -0.0193253
0.102854 0.2515 -0.351983
0.101564 0.243553 -0.329958
0.113211 0.304227 -0.346164
0.125582 0.367715 -0.360431
0.145606 0.471115 -0.3908
-0.00198004 -0.299291 -0.0192992
0.339142 1.47664 -0.775051
0.798783 3.86233 -1.67507
0.852701 4.13871 -1.66522
0.911111 4.43334 -1.64891
0.979502 4.7784 -1.6341
1.05838 5.18178 -1.62119
1.15245 5.65711 -1.60876
1.25949 6.20372 -1.59012
1.39522 6.89023 -1.57744
1.55106 7.67756 -1.55194
1.72012 8.74848 -1.53417
1.97718 10.0896 -1.50755
2.33192 11.9291 -1.47517
2.88081 14.7766 -1.45404
3.76108 19.3626 -1.42272
5.10133 26.3161 -1.28791
6.61127 34.1276 -0.839407
9.7749 50.5513 -0.0284501
-0.00198004 -0.299291 -0.0192992
-0.00198004 -0.299291 -0.0192992
-0.00198004 -0.299291 -0.0192992
-0.00198004 -0.299291 -0.0192992
-0.00198004 -0.299291 -0.0192992
-0.00198004 -0.299291 -0.0192992
-0.00198004 -0.299291 -0.0192992
-0.00198004 -0.299291 -0.0192992
0.105724 0.249545 -0.350939
0.104636 0.243315 -0.329934
0.116361 0.302153 -0.345202
0.129425 0.367349 -0.360405
0.148249 0.461823 -0.386491
-0.00193981 -0.298989 -0.0192796
0.348668 1.47138 -0.773481
0.823833 3.8635 -1.67722
0.877923 4.13223 -1.6645
0.940585 4.43948 -1.65272
1.0106 4.78246 -1.63704
1.08922 5.17212 -1.62005
1.18674 5.65073 -1.60873
1.29733 6.19866 -1.59054
1.43698 6.88441 -1.57781
1.59856 7.67658 -1.55338
1.77113 8.73292 -1.53315
2.03966 10.092 -1.50945
2.40389 11.9236 -1.47604
2.9737 14.7914 -1.45696
3.89053 19.4232 -1.42852
-0.00193981 -0.298989 -0.0192796
6.82076 34.1462 -0.840664
-0.00193981 -0.298989 -0.0192796
-0.00193981 -0.298989 -0.0192796
-0.00193981 -0.298989 -0.0192796
-0.00193981 -0.298989 -0.0192796
-0.00193981 -0.298989 -0.0192796
-0.00193981 -0.298989 -0.0192796
-0.00193981 -0.298989 -0.0192796
-0.00193981 -0.298989 -0.0192796
-0.00193981 -0.298989 -0.0192796
0.108168 0.246026 -0.348866
0.108128 0.244774 -0.330888
0.118725 0.296719 -0.342355
0.130735 0.354663 -0.354098
0.152284 0.45955 -0.385609
-0.00195932 -0.298581 -0.0192535
0.359159 1.47158 -0.774221
0.850425 3.87189 -1.68227
0.904933 4.13108 -1.66583
0.96747 4.43253 -1.65204
1.03942 4.77506 -1.63641
1.12246 5.1697 -1.62112
1.22181 5.64792 -1.6097
1.33664 6.19501 -1.59142
1.47997 6.87803 -1.57818
1.64744 7.67512 -1.55482
1.82579 8.73658 -1.53538
2.10294 10.0878 -1.51052
2.47428 11.9099 -1.47599
3.07332 14.8368 -1.46286
4.01665 19.4451 -1.43167
5.40199 26.229 -1.28642
7.04738 34.2459 -0.843878
-0.00195932 -0.298581 -0.0192535
-0.00195932 -0.298581 -0.0192535
-0.00195932 -0.298581 -0.0192535
-0.00195932 -0.298581 -0.0192535
-0.00195932 -0.298581 -0.0192535
-0.00195932 -0.298581 -0.0192535
-0.00195932 -0.298581 -0.0192535
-0.00195932 -0.298581 -0.0192535
-0.00195932 -0.298581 -0.0192535
0.112087 0.249052 -0.350885
0.111673 0.246264 -0.331839
0.122295 0.29634 -0.342331
0.135358 0.357788 -0.355865
0.154933 0.450122 -0.381305
-0.00197883 -0.298173 -0.0192274
0.368552 1.46437 -0.771879
0.870574 3.84524 -1.67351
0.930826 4.12801 -1.66648
0.997894 4.43823 -1.65585
1.06994 4.77108 -1.63697
1.15309 5.15978 -1.61998
1.25788 5.6447 -1.61068
1.37608 6.19712 -1.59369
1.52251 6.87551 -1.57939
1.69335 7.66586 -1.55477
1.88104 8.73363 -1.53663
2.16516 10.0876 -1.51214
2.54994 11.9109 -1.4778
3.17043 14.8537 -1.46615
4.14051 19.4709 -1.4351
5.59754 26.3787 -1.29503
7.27284 34.3016 -0.846111
-0.00197883 -0.298173 -0.0192274
-0.00197883 -0.298173 -0.0192274
-0.00197883 -0.298173 -0.0192274
-0.00197883 -0.298173 -0.0192274
-0.00197883 -0.298173 -0.0192274
-0.00197883 -0.298173 -0.0192274
-0.00197883 -0.298173 -0.0192274
-0.00197883 -0.298173 -0.0192274
-0.00197883 -0.298173 -0.0192274
0.114538 0.245396 -0.348819
0.115224 0.247617 -0.332797
0.126119 0.297704 -0.343245
0.140234 0.362654 -0.358529
0.160054 0.453102 -0.382991
-0.00193861 -0.297871 -0.0192077
0.381065 1.47337 -0.77648
0.894818 3.84236 -1.6742
0.957092 4.12272 -1.66645
1.02474 4.43098 -1.65517
1.09955 4.767 -1.63753
1.1867 5.15886 -1.62159
1.29203 5.63781 -1.61064
1.41501 6.19112 -1.59411
1.56512 6.86665 -1.57935
1.74354 7.66941 -1.55733
1.93469 8.73077 -1.53788
2.22802 10.0807 -1.51293
2.62232 11.9062 -1.4789
-0.00193861 -0.297871 -0.0192077
4.26541 19.4814 -1.43755
5.75739 26.3756 -1.29635
-0.00193861 -0.297871 -0.0192077
-0.00193861 -0.297871 -0.0192077
-0.00193861 -0.297871 -0.0192077
-0.00193861 -0.297871 -0.0192077
-0.00193861 -0.297871 -0.0192077
-0.00193861 -0.297871 -0.0192077
-0.00193861 -0.297871 -0.0192077
-0.00193861 -0.297871 -0.0192077
-0.00193861 -0.297871 -0.0192077
-0.00193861 -0.297871 -0.0192077
0.11851 0.248452 -0.350833
0.117368 0.242192 -0.329831
0.129269 0.29563 -0.342278
0.143416 0.358583 -0.356714
0.164702 0.454362 -0.383818
-0.00195812 -0.297463 -0.0191816
0.390298 1.46608 -0.774136
0.919428 3.84114 -1.67562
0.983762 4.12311 -1.66846
1.05241 4.42722 -1.65578
1.12828 4.75913 -1.6369
1.21817 5.15229 -1.62156
1.32667 5.63249 -1.61111
1.45238 6.18324 -1.59407
1.60723 6.86772 -1.58139
1.78753 7.65807 -1.55691
1.99042 8.7291 -1.53946
2.29033 10.0797 -1.51455
2.69728 11.9024 -1.48025
3.35645 14.8573 -1.46994
4.3952 19.529 -1.44265
5.91611 26.3433 -1.29636
7.70532 34.3705 -0.849597
-0.00195812 -0.297463 -0.0191816
-0.00195812 -0.297463 -0.0191816
-0.00195812 -0.297463 -0.0191816
-0.00195812 -0.297463 -0.0191816
-0.00195812 -0.297463 -0.0191816
-0.00195812 -0.297463 -0.0191816
-0.00195812 -0.297463 -0.0191816
-0.00195812 -0.297463 -0.0191816
-0.00195812 -0.297463 -0.0191816
0.118852 0.236431 -0.343663
0.12148 0.247063 -0.332741
0.132147 0.293543 -0.341313
0.14704 0.358234 -0.356683
0.170242 0.459032 -0.386361
-0.00197763 -0.297055 -0.0191555
0.400583 1.46601 -0.77488
0.942861 3.83435 -1.67486
1.00885 4.11972 -1.66911
1.07957 4.42145 -1.65574
1.15865 4.7585 -1.63865
1.25115 5.157 -1.62483
1.36166 5.62893 -1.61208
1.48942 6.17915 -1.59496
1.64894 6.86062 -1.58177
1.83601 7.65951 -1.55909
2.0421 8.72399 -1.54039
2.3517 10.0826 -1.51673
2.77155 11.9146 -1.48345
3.44283 14.8464 -1.47062
4.53115 19.6154 -1.45055
6.07147 26.3394 -1.29768
7.91377 34.3649 -0.850429
-0.00197763 -0.297055 -0.0191555
-0.00197763 -0.297055 -0.0191555
-0.00197763 -0.297055 -0.0191555
-0.00197763 -0.297055 -0.0191555
-0.00197763 -0.297055 -0.0191555
-0.00197763 -0.297055 -0.0191555
-0.00197763 -0.297055 -0.0191555
-0.00197763 -0.297055 -0.0191555
-0.00197763 -0.297055 -0.0191555
0.123505 0.242798 -0.347719
0.123825 0.243353 -0.330754
0.136757 0.298267 -0.344107
0.151196 0.359501 -0.357553
0.175475 0.461936 -0.388046
-0.00199714 -0.296647 -0.0191294
0.411199 1.46586 -0.775622
0.965782 3.82555 -1.67337
1.03462 4.11214 -1.6684
1.10721 4.41739 -1.65634
1.18869 4.75582 -1.63981
1.28305 5.14797 -1.62424
1.39492 5.61756 -1.61103
1.53052 6.18195 -1.59769
1.69274 6.85685 -1.58297
1.88641 7.66219 -1.56165
2.09849 8.73176 -1.54359
2.41283 10.0669 -1.5164
2.84233 11.9007 -1.48363
3.53178 14.8345 -1.47131
-0.00199714 -0.296647 -0.0191294
6.22979 26.3258 -1.29862
8.12477 34.3677 -0.851495
-0.00199714 -0.296647 -0.0191294
-0.00199714 -0.296647 -0.0191294
-0.00199714 -0.296647 -0.0191294
-0.00199714 -0.296647 -0.0191294
-0.00199714 -0.296647 -0.0191294
-0.00199714 -0.296647 -0.0191294
-0.00199714 -0.296647 -0.0191294
-0.00199714 -0.296647 -0.0191294
-0.00199714 -0.296647 -0.0191294
0.12717 0.244077 -0.348715
0.126649 0.241234 -0.329751
0.140694 0.299553 -0.345019
0.154685 0.3572 -0.356631
0.179936 0.461217 -0.388022
0.225601 0.650528 -0.452842
0.422042 1.46554 -0.776365
0.98849 3.81289 -1.67043
1.06044 4.10832 -1.66905
1.13516 4.41108 -1.65631
1.22084 4.75837 -1.64275
1.31576 5.14655 -1.62585
1.43041 5.61146 -1.6115
1.56781 6.17346 -1.59764
1.73621 6.85687 -1.58501
1.93221 7.65162 -1.5616
2.15071 8.71365 -1.54257
2.47394 10.059 -1.51719
2.91557 11.8879 -1.48404
3.62483 14.8271 -1.47255
4.76515 19.5676 -1.45083
6.38912 26.2945 -1.29881
8.35044 34.4028 -0.8534
-0.00195692 -0.296345 -0.0191097
-0.00195692 -0.296345 -0.0191097
-0.00195692 -0.296345 -0.0191097
-0.00195692 -0.296345 -0.0191097
-0.00195692 -0.296345 -0.0191097
-0.00195692 -0.296345 -0.0191097
-0.00195692 -0.296345 -0.0191097
-0.00195692 -0.296345 -0.0191097
-0.00195692 -0.296345 -0.0191097
0.130248 0.243702 -0.34869
0.130147 0.242557 -0.330706
0.142425 0.292304 -0.341233
0.159734 0.361882 -0.359298
0.182566 0.453511 -0.384573
0.230999 0.649634 -0.452812
0.431315 1.45986 -0.774794
1.01524 3.82024 -1.67548
1.08492 4.09886 -1.66764
1.1627 4.40669 -1.65691
1.24857 4.74608 -1.64092
1.34663 5.13736 -1.62527
1.46492 5.60536 -1.61197
1.60178 6.15141 -1.59438
1.77745 6.84709 -1.58497
1.97793 7.64071 -1.56156
2.20393 8.7073 -1.5435
2.53495 10.0507 -1.51798
2.98857 11.8829 -1.48538
-0.00197643 -0.295937 -0.0190836
4.87469 19.5208 -1.44936
6.56323 26.343 -1.30284
8.5478 34.3449 -0.853055
-0.00197643 -0.295937 -0.0190836
-0.00197643 -0.295937 -0.0190836
-0.00197643 -0.295937 -0.0190836
-0.00197643 -0.295937 -0.0190836
-0.00197643 -0.295937 -0.0190836
-0.00197643 -0.295937 -0.0190836
-0.00197643 -0.295937 -0.0190836
-0.00197643 -0.295937 -0.0190836
-0.00197643 -0.295937 -0.0190836
0.1347 0.248351 -0.351722
0.133338 0.242105 -0.330682
0.146782 0.295285 -0.343082
0.16275 0.357858 -0.357474
0.187746 0.456385 -0.386254
0.252774 0.712305 -0.482085
0.44398 1.46665 -0.778617
1.03895 3.81464 -1.67545
1.11188 4.09643 -1.66897
1.18792 4.39294 -1.65432
1.27764 4.73914 -1.64089
1.3803 5.13521 -1.62689
1.50128 5.6066 -1.61446
1.64482 6.16101 -1.59895
1.8195 6.84091 -1.58576
2.0256 7.63717 -1.563
2.25973 8.70399 -1.54507
2.59871 10.0455 -1.51932
3.06032 11.8634 -1.48509
3.7825 14.7092 -1.46517
5.00294 19.5345 -1.45236
6.51755 25.4982 -1.26386
8.76827 34.3788 -0.854961
-0.00194271 -0.295499 -0.0190552
19.2324 75.5322 1.78514
-0.00194271 -0.295499 -0.0190552
-0.00194271 -0.295499 -0.0190552
-0.00194271 -0.295499 -0.0190552
-0.00194271 -0.295499 -0.0190552
-0.00194271 -0.295499 -0.0190552
-0.00194271 -0.295499 -0.0190552
-0.00194271 -0.295499 -0.0190552
0.137304 0.246246 -0.350679
0.134623 0.235016 -0.326734
0.150086 0.294758 -0.343061
0.16644 0.357266 -0.357451
0.191208 0.452196 -0.384514
0.2574 0.707794 -0.480426
0.452927 1.46093 -0.777047
1.06355 3.81256 -1.67687
1.13643 4.09046 -1.66894
1.21688 4.39366 -1.65685
1.30807 4.73756 -1.64265
1.40812 5.11857 -1.62409
1.53472 5.59633 -1.61392
1.68036 6.15025 -1.59845
1.86254 6.83828 -1.58738
2.07375 7.63531 -1.56481
2.31 8.69158 -1.54503
2.65839 10.0389 -1.52039
3.12915 11.8503 -1.4855
3.85929 14.6612 -1.46251
5.14813 19.6398 -1.46194
6.63502 25.3592 -1.25883
8.96236 34.3068 -0.85434
-0.00196222 -0.295091 -0.0190291
-0.00196222 -0.295091 -0.0190291
-0.00196222 -0.295091 -0.0190291
-0.00196222 -0.295091 -0.0190291
-0.00196222 -0.295091 -0.0190291
-0.00196222 -0.295091 -0.0190291
-0.00196222 -0.295091 -0.0190291
-0.00196222 -0.295091 -0.0190291
-0.00196222 -0.295091 -0.0190291
0.140383 0.245871 -0.35065
0.139441 0.241326 -0.330629
0.154389 0.297709 -0.344911
0.170183 0.356704 -0.357423
0.198752 0.463668 -0.39048
0.269 0.727804 -0.490165
0.464441 1.46404 -0.779331
1.08774 3.80853 -1.67757
1.16341 4.08761 -1.67028
1.2448 4.39064 -1.65809
1.33751 4.73226 -1.6432
1.44176 5.11598 -1.62571
1.56765 5.58407 -1.61286
1.71909 6.14246 -1.59887
1.90435 6.82557 -1.58693
2.12026 7.62133 -1.56439
2.36321 8.68424 -1.54596
2.72071 10.0271 -1.5209
3.20209 11.844 -1.48684
3.93719 14.6083 -1.45947
5.27807 19.6537 -1.46508
6.7617 25.2419 -1.25491
9.17024 34.2878 -0.855031
-0.00198173 -0.294683 -0.019003
-0.00198173 -0.294683 -0.019003
-0.00198173 -0.294683 -0.019003
-0.00198173 -0.294683 -0.019003
-0.00198173 -0.294683 -0.019003
-0.00198173 -0.294683 -0.019003
-0.00198173 -0.294683 -0.019003
-0.00198173 -0.294683 -0.019003
-0.00198173 -0.294683 -0.019003
0.143633 0.245313 -0.350629
0.144006 0.245891 -0.333544
0.156547 0.292019 -0.342068
0.173565 0.354343 -0.356498
0.200389 0.452357 -0.38532
0.262931 0.682494 -0.469796
0.474831 1.4616 -0.779303
1.11149 3.80067 -1.6768
1.19061 4.08848 -1.67298
1.2761 4.39631 -1.66254
1.36681 4.72275 -1.64257
1.47441 5.11353 -1.62733
1.60457 5.58251 -1.61485
1.75772 6.13845 -1.60021
1.9469 6.82053 -1.58813
2.16901 7.62067 -1.56658
2.41849 8.67809 -1.54721
2.78322 10.0231 -1.52252
3.27671 11.8347 -1.48796
4.01988 14.5639 -1.45736
5.40069 19.6523 -1.46711
6.89068 25.1186 -1.25081
9.32189 34.0364 -0.850157
-0.00194151 -0.294381 -0.0189833
10.5784 38.585 0.910577
10.5736 38.5151 1.85092
10.58 38.5129 2.78782
10.5674 38.4149 3.71867
-0.00194151 -0.294381 -0.0189833
-0.00194151 -0.294381 -0.0189833
-0.00194151 -0.294381 -0.0189833
-0.00194151 -0.294381 -0.0189833
0.145391 0.239944 -0.347537
0.146611 0.243788 -0.332536
0.160324 0.293215 -0.34298
0.176369 0.350199 -0.35468
0.204218 0.449828 -0.384437
0.26773 0.677799 -0.46814
0.48594 1.46275 -0.780818
1.13407 3.79097 -1.67531
1.21557 4.07817 -1.67157
1.30409 4.39291 -1.66379
1.39621 4.71702 -1.64313
1.50651 5.10507 -1.62729
1.64103 5.58282 -1.61735
1.79844 6.13764 -1.60248
1.99017 6.81293 -1.58893
2.21698 7.61179 -1.56728
2.47332 8.67579 -1.54911
2.84706 10.0163 -1.52387
3.34861 11.8237 -1.48883
4.107 14.5466 -1.45787
5.54244 19.7048 -1.47319
7.00651 24.9693 -1.24539
-0.00196102 -0.293973 -0.0189573
-0.00196102 -0.293973 -0.0189573
-0.00196102 -0.293973 -0.0189573
-0.00196102 -0.293973 -0.0189573
-0.00196102 -0.293973 -0.0189573
-0.00196102 -0.293973 -0.0189573
-0.00196102 -0.293973 -0.0189573
-0.00196102 -0.293973 -0.0189573
-0.00196102 -0.293973 -0.0189573
-0.00196102 -0.293973 -0.0189573
0.149009 0.241056 -0.348535
0.147902 0.236563 -0.328591
0.163374 0.290945 -0.342013
0.183122 0.359789 -0.360043
0.20963 0.452412 -0.386125
0.280387 0.701167 -0.479508
0.496389 1.46021 -0.780789
1.16088 3.79349 -1.67892
1.24023 4.06969 -1.67085
1.33552 4.39822 -1.66823
1.42589 4.70902 -1.64309
1.53756 5.09672 -1.62725
1.67218 5.56029 -1.61377
1.83605 6.12936 -1.6029
2.03212 6.80557 -1.58971
2.26467 7.60684 -1.56871
2.52921 8.67084 -1.55068
2.90858 10.0077 -1.52493
3.42322 11.8135 -1.48994
4.20533 14.5587 -1.46134
5.67011 19.717 -1.47633
7.13451 24.8507 -1.24157
9.70639 33.868 -0.848543
10.4012 36.29 -0.0243624
10.4088 36.269 0.858258
25.3389 88.5888 4.27798
-0.00198053 -0.293565 -0.0189312
-0.00198053 -0.293565 -0.0189312
-0.00198053 -0.293565 -0.0189312
-0.00198053 -0.293565 -0.0189312
-0.00198053 -0.293565 -0.0189312
-0.00198053 -0.293565 -0.0189312
0.154421 0.248893 -0.353607
0.15194 0.23937 -0.330528
0.166738 0.29031 -0.341991
0.185866 0.355751 -0.358216
0.21529 0.456868 -0.388663
0.291633 0.719247 -0.48843
0.505987 1.45588 -0.779992
1.18159 3.78014 -1.67597
1.26694 4.06814 -1.67288
1.36437 4.40019 -1.6714
1.45437 4.70319 -1.64365
1.56805 5.08634 -1.62666
1.70698 5.55865 -1.61576
1.87242 6.11724 -1.6024
2.07503 6.80572 -1.59217
2.30933 7.59635 -1.56904
2.58077 8.65649 -1.55064
2.97057 10.0007 -1.52627
3.49841 11.813 -1.49221
4.30022 14.5671 -1.46445
5.78193 19.673 -1.47542
7.25916 24.7405 -1.23812
9.90319 33.8348 -0.848952
10.6169 36.2471 -0.0242544
10.6103 36.1781 0.857633
11.7336 40.0137 1.93291
11.7538 40.032 2.91237
-0.00200004 -0.293156 -0.0189051
-0.00200004 -0.293156 -0.0189051
-0.00200004 -0.293156 -0.0189051
-0.00200004 -0.293156 -0.0189051
-0.00200004 -0.293156 -0.0189051
0.156018 0.243434 -0.35052
0.156871 0.245603 -0.33442
0.169989 0.289752 -0.341964
0.190507 0.358468 -0.359987
0.220123 0.457672 -0.389495
0.291821 0.698616 -0.479454
0.517821 1.46047 -0.783048
1.2067 3.77896 -1.67812
1.2904 4.05582 -1.67078
1.39244 4.39627 -1.67264
1.48421 4.69872 -1.64481
1.60178 5.08681 -1.62938
1.74066 5.54912 -1.61572
1.90771 6.10109 -1.60098
2.11828 6.7974 -1.59296
2.36002 7.59611 -1.57159
2.63467 8.65551 -1.55287
3.03155 9.98947 -1.52706
3.57276 11.8166 -1.49494
4.39219 14.5738 -1.46736
5.89578 19.6358 -1.47507
7.37338 24.6138 -1.23383
10.0894 33.743 -0.848011
10.8306 36.1973 -0.0241419
10.8184 36.134 0.858109
7.60187 25.2735 1.2213
-0.00195981 -0.292855 -0.0188854
-0.00195981 -0.292855 -0.0188854
-0.00195981 -0.292855 -0.0188854
-0.00195981 -0.292855 -0.0188854
-0.00195981 -0.292855 -0.0188854
-0.00195981 -0.292855 -0.0188854
0.158683 0.241222 -0.349474
0.156036 0.231757 -0.32655
0.174998 0.294139 -0.344758
0.191839 0.349127 -0.355473
0.224537 0.456786 -0.389465
0.304344 0.720037 -0.490005
0.529327 1.46128 -0.78456
1.23352 3.78107 -1.68172
1.31706 4.0541 -1.6728
1.42412 4.40102 -1.67709
1.51386 4.69014 -1.64477
1.63385 5.08148 -1.63045
1.77587 5.54089 -1.61618
1.94789 6.10154 -1.60371
2.15736 6.77989 -1.59167
2.40833 7.5921 -1.5734
2.68884 8.64393 -1.55347
3.09359 9.98164 -1.52841
3.64396 11.7936 -1.49465
4.48439 14.5612 -1.4686
6.00066 19.5694 -1.47262
7.49909 24.4973 -1.2302
10.2721 33.6198 -0.846359
7.77752 25.3703 -0.022505
7.75513 25.2652 0.597616
-0.00197932 -0.292446 -0.0188593
-0.00197932 -0.292446 -0.0188593
18.6418 60.9473 5.94468
-0.00197932 -0.292446 -0.0188593
18.6074 60.7231 8.93748
18.6045 60.6394 10.4394
-0.00197932 -0.292446 -0.0188593
0.161767 0.240711 -0.349446
0.160074 0.234564 -0.328483
0.178361 0.293504 -0.344731
0.196534 0.351873 -0.357238
0.22943 0.457484 -0.3903
0.30716 0.70814 -0.485094
0.538294 1.45515 -0.782983
1.25644 3.77245 -1.68096
1.34399 4.0501 -1.67414
1.45116 4.39308 -1.67705
1.54021 4.67451 -1.64235
1.66405 5.06653 -1.62876
1.81289 5.54211 -1.61918
1.98929 6.10142 -1.60643
2.20572 6.78785 -1.5962
2.45507 7.57799 -1.57336
2.74085 8.63055 -1.55375
3.15621 9.96922 -1.52919
3.71473 11.7766 -1.49506
4.57459 14.5507 -1.47003
6.08785 19.4347 -1.46528
7.62768 24.4082 -1.22787
10.4301 33.44 -0.843315
-0.00199883 -0.292038 -0.0188332
15.6271 50.1542 1.20024
7.90212 25.1893 1.22175
7.14863 22.7325 1.66383
-0.00199883 -0.292038 -0.0188332
-0.00199883 -0.292038 -0.0188332
-0.00199883 -0.292038 -0.0188332
-0.00199883 -0.292038 -0.0188332
-0.00199883 -0.292038 -0.0188332
0.164438 0.238363 -0.348406
0.163751 0.235567 -0.329442
0.181838 0.292792 -0.344706
0.199291 0.347563 -0.355422
0.231681 0.449705 -0.386843
0.311279 0.701472 -0.482627
0.550279 1.45753 -0.78527
1.27887 3.75997 -1.67875
1.36841 4.04093 -1.67341
1.48067 4.39015 -1.67894
1.57086 4.66923 -1.64351
1.69717 5.06466 -1.63092
1.84687 5.52976 -1.61864
2.02605 6.09025 -1.60639
2.24408 6.76795 -1.5945
2.50157 7.56785 -1.57406
2.79972 8.63327 -1.55695
3.21822 9.96068 -1.53053
3.78746 11.7585 -1.49548
4.66799 14.5408 -1.47164
6.17314 19.3103 -1.45863
7.17553 22.4652 -1.13473
10.5964 33.2711 -0.840595
-0.00195861 -0.291736 -0.0188135
15.8835 49.9256 1.19712
8.05559 25.15 1.22222
-0.00195861 -0.291736 -0.0188135
17.0358 53.4104 5.23002
16.9786 53.1669 6.53312
-0.00195861 -0.291736 -0.0188135
-0.00195861 -0.291736 -0.0188135
-0.00195861 -0.291736 -0.0188135
0.168003 0.239445 -0.349399
0.167789 0.238374 -0.331372
0.184616 0.290509 -0.343736
0.204046 0.350203 -0.35719
0.240374 0.462437 -0.393667
0.316976 0.700045 -0.4826
0.562098 1.45997 -0.787555
1.30442 3.76006 -1.68162
1.39452 4.0369 -1.67475
1.50468 4.37288 -1.6757
1.59884 4.6587 -1.64287
1.72858 5.05697 -1.63143
1.8834 5.52857 -1.62113
2.0622 6.07702 -1.60589
2.28594 6.75899 -1.59529
2.55042 7.56501 -1.57623
2.85353 8.62488 -1.5582
3.27724 9.94239 -1.53048
3.86162 11.752 -1.49728
4.76005 14.5349 -1.47363
6.25549 19.1798 -1.45158
7.30839 22.4295 -1.13493
-0.00197812 -0.291328 -0.0187874
7.35853 22.5459 -0.0218786
7.33735 22.4535 0.533013
7.32869 22.4002 1.09019
-0.00197812 -0.291328 -0.0187874
17.1683 52.7661 5.17674
16.4898 50.6099 6.23138
-0.00197812 -0.291328 -0.0187874
16.7658 51.3728 8.89801
-0.00197812 -0.291328 -0.0187874
0.171567 0.240527 -0.35039
0.17088 0.237726 -0.331349
0.189098 0.293141 -0.34559
0.208853 0.352872 -0.358954
0.241301 0.451146 -0.388503
0.326105 0.708977 -0.487456
0.572182 1.45708 -0.787526
1.32834 3.75462 -1.68231
1.41942 4.02916 -1.67471
1.52675 4.3502 -1.67054
1.62971 4.65699 -1.64522
1.75943 5.04724 -1.6314
1.91868 5.52353 -1.62261
2.1019 6.07465 -1.60816
2.3302 6.75724 -1.59774
2.59753 7.55608 -1.5773
2.90354 8.60499 -1.5575
3.34048 9.93683 -1.53239
3.93528 11.7432 -1.49885
4.84908 14.5189 -1.47469
6.32902 19.0262 -1.44284
7.44349 22.4008 -1.1355
10.7271 32.3707 -0.82129
10.7186 32.3265 -0.0231074
18.3977 55.6259 1.34049
18.3211 55.3295 2.70475
18.0833 54.5768 4.01368
15.9685 48.1054 4.72939
15.9209 47.9058 5.9106
16.1045 48.4346 7.187
16.0654 48.261 8.37686
-0.0019444 -0.29089 -0.0187591
0.171939 0.231732 -0.345263
0.173971 0.237078 -0.331324
0.189651 0.284051 -0.340867
0.211444 0.348609 -0.357134
0.241009 0.436403 -0.38163
0.333605 0.712637 -0.489871
0.58575 1.46457 -0.792127
1.35223 3.74901 -1.68301
1.44428 4.02125 -1.67468
1.55166 4.33631 -1.66858
1.65634 4.64253 -1.64339
1.79132 5.04111 -1.63246
1.95032 5.50729 -1.62105
2.14041 6.06834 -1.6095
2.3714 6.74592 -1.59812
2.64584 7.55067 -1.57911
2.95664 8.59409 -1.55843
3.40061 9.92158 -1.53289
4.00456 11.7207 -1.49879
4.94 14.5082 -1.4763
6.40165 18.8744 -1.43424
8.17935 24.1672 -1.22464
11.1392 32.978 -0.837662
10.8447 32.0806 -0.0229817
15.5082 45.9463 1.10747
15.4815 45.8144 2.24328
15.4943 45.8273 3.37725
15.6451 46.2237 4.55364
15.6612 46.2191 5.71419
15.674 46.2318 6.87456
15.6389 46.0754 8.01444
15.6557 46.0731 9.19505
0.178816 0.242479 -0.352382
0.17583 0.233235 -0.329333
0.19408 0.286653 -0.34272
0.218009 0.356215 -0.361596
0.248125 0.443886 -0.385885
0.343652 0.723115 -0.49554
0.59705 1.46512 -0.793635
1.37542 3.74158 -1.68297
1.47407 4.02552 -1.67943
1.57094 4.30616 -1.66086
1.6835 4.62968 -1.64216
1.82416 5.0344 -1.63353
1.98557 5.50181 -1.62254
2.17754 6.05398 -1.609
2.41566 6.73949 -1.59974
2.69294 7.53706 -1.57944
3.01027 8.58477 -1.55968
3.46175 9.90351 -1.53312
4.07431 11.6996 -1.49898
5.03094 14.4969 -1.47791
6.46829 18.6987 -1.42396
8.31882 24.1163 -1.22437
11.3539 32.9818 -0.839235
10.269 29.7696 -0.0225876
15.3532 44.625 1.07755
15.3373 44.5284 2.1846
15.2924 44.3476 3.27503
15.2341 44.128 4.35655
15.2305 44.0937 5.46301
15.2336 44.0535 6.56516
15.1788 43.8453 7.64361
15.1787 43.8211 8.76481
0.182553 0.243378 -0.353378
0.1801 0.235753 -0.331272
0.197563 0.285805 -0.342698
0.217737 0.34348 -0.355285
0.256625 0.454774 -0.391847
0.347665 0.716387 -0.493067
0.610432 1.47063 -0.797462
1.39993 3.73548 -1.68366
1.4971 4.01198 -1.67734
1.60131 4.30603 -1.66403
1.71265 4.61998 -1.64213
1.8555 5.02596 -1.63404
2.01994 5.49028 -1.6225
2.21784 6.05282 -1.61172
2.45615 6.72579 -1.5997
2.74123 7.53108 -1.58125
3.06615 8.57645 -1.56126
3.52369 9.89311 -1.53446
4.14608 11.6775 -1.49916
5.12318 14.4802 -1.47916
6.5311 18.5277 -1.41397
8.45501 24.0423 -1.22307
10.5091 29.9192 -0.765122
10.3986 29.5856 -0.0224729
14.9483 42.6076 1.03058
14.9423 42.5431 2.09143
14.8588 42.2812 3.12892
14.769 41.9777 4.15314
14.917 42.3546 5.25916
14.8548 42.154 6.29581
14.7801 41.8949 7.31973
14.8859 42.1503 8.44964
0.184411 0.239529 -0.351306
0.179027 0.223655 -0.324382
0.199122 0.280058 -0.339852
0.222558 0.345877 -0.35706
0.258503 0.446787 -0.3884
0.34925 0.702628 -0.487347
1.34182 3.50256 -1.69958
1.42251 3.72597 -1.6829
1.52118 4.00191 -1.67662
1.62585 4.2918 -1.66207
1.74287 4.61576 -1.64388
1.88611 5.01554 -1.634
2.05316 5.47894 -1.62246
2.25372 6.03846 -1.61122
2.4978 6.71559 -1.60049
2.78952 7.52482 -1.58305
3.12112 8.57016 -1.56316
3.5836 9.87676 -1.53497
4.21893 11.6651 -1.50049
5.21876 14.481 -1.48207
6.58218 18.3283 -1.40188
8.58635 23.9691 -1.22177
11.8311 33.0981 -0.845228
8.91618 24.8603 -0.0217914
14.5337 40.6576 0.985027
14.5338 40.6136 2.00058
14.4862 40.4584 3.00036
14.4352 40.2713 3.99295
14.515 40.4514 5.03395
14.4924 40.3667 6.0423
14.4113 40.0956 7.02112
14.4867 40.2634 8.08969
0.187509 0.238745 -0.351285
0.184357 0.22955 -0.328276
0.206535 0.290931 -0.346399
0.227485 0.348333 -0.358828
0.263403 0.447348 -0.38923
0.3549 0.701034 -0.487317
1.35921 3.48297 -1.69415
1.44689 3.72153 -1.68433
1.54654 3.99517 -1.67728
1.65351 4.28625 -1.66332
1.77499 4.61678 -1.64742
1.91724 5.00684 -1.63451
2.0877 5.47107 -1.62343
2.2908 6.0275 -1.61165
2.54076 6.70884 -1.60211
2.83449 7.509 -1.58301
3.17213 8.55242 -1.56311
3.64342 9.86007 -1.53548
4.2904 11.6484 -1.50137
5.30781 14.4622 -1.48312
6.62309 18.1065 -1.38812
8.71311 23.8839 -1.21991
-0.00198222 -0.288956 -0.018635
9.04054 24.7524 -0.0217029
14.142 38.8379 0.942518
14.1676 38.867 1.91845
14.1135 38.6975 2.87596
14.0668 38.5272 3.82848
14.0922 38.5562 4.80897
14.0951 38.5442 5.78266
14.0626 38.4134 6.74194
14.0723 38.3991 7.73305
0.188194 0.231589 -0.347176
0.187928 0.230494 -0.329229
0.20804 0.285155 -0.343554
0.228632 0.340765 -0.355205
0.270745 0.454677 -0.393483
0.361248 0.701005 -0.488107
1.37903 3.47027 -1.6918
1.4719 3.71875 -1.68647
1.57058 3.9848 -1.67656
1.67921 4.27528 -1.66264
1.80191 4.60323 -1.64619
1.94901 4.99967 -1.63558
2.12288 5.46471 -1.62491
2.32983 6.02192 -1.61345
2.58243 6.6981 -1.6029
2.88486 7.50763 -1.58593
3.22639 8.54361 -1.56469
3.70321 9.84295 -1.53599
4.35979 11.6257 -1.50155
5.39548 14.4392 -1.48381
6.65476 17.8661 -1.37296
8.84873 23.8244 -1.21936
9.23869 24.8602 -0.643684
9.17497 24.674 -0.0216142
13.7898 37.1876 0.904023
13.792 37.1542 1.83772
13.7782 37.0977 2.76312
13.7525 36.9887 3.68387
13.7548 36.9559 4.61994
13.7467 36.9151 5.5511
13.73 36.831 6.47928
13.7359 36.8082 7.43008
0.192352 0.234188 -0.349185
0.190912 0.229786 -0.329203
0.211943 0.286002 -0.344466
0.231648 0.338058 -0.354286
0.273096 0.448409 -0.390889
0.366432 0.697557 -0.487263
1.40261 3.46782 -1.69408
1.4956 3.71235 -1.68717
1.59656 3.97757 -1.6772
1.70809 4.27301 -1.66516
1.83078 4.59495 -1.64675
1.97906 4.98479 -1.63444
2.15529 5.45092 -1.62437
2.36726 6.00832 -1.61342
2.62795 6.6941 -1.60535
2.93385 7.49809 -1.58737
3.27789 8.52714 -1.56497
3.76462 9.82491 -1.53649
4.43525 11.6194 -1.50381
5.47882 14.4045 -1.48338
6.67934 17.6043 -1.35626
8.98683 23.7714 -1.21918
12.3187 32.6557 -0.839078
9.38821 24.7937 -0.0215442
13.7032 36.3008 0.884225
13.6988 36.2514 1.79694
13.6942 36.2011 2.7025
13.694 36.163 3.60995
13.6798 36.1066 4.52397
13.6625 36.0232 5.42968
13.6593 35.9772 6.34396
13.643 35.9159 7.26661
0.195449 0.233404 -0.34916
0.192138 0.224125 -0.326237
0.212283 0.276792 -0.339747
0.236635 0.340407 -0.356054
0.275559 0.442064 -0.388295
0.375381 0.704374 -0.491302
1.42687 3.46491 -1.69636
1.51802 3.70032 -1.68567
1.62114 3.96867 -1.67717
1.73317 4.25782 -1.66321
1.86238 4.59155 -1.6491
2.01148 4.979 -1.63606
2.1928 5.44748 -1.62686
2.40346 5.99501 -1.61337
2.66959 6.68278 -1.60615
2.97864 7.48147 -1.58732
3.33018 8.50787 -1.56492
3.82286 9.80338 -1.53645
4.50799 11.5988 -1.50446
5.57018 14.3833 -1.48443
6.79152 17.5901 -1.35801
9.14229 23.7516 -1.22078
12.6763 33.0083 -0.849606
13.633 35.503 -0.0227031
13.9037 36.1762 0.883276
13.9325 36.2147 1.79929
13.9184 36.1593 2.7054
13.9158 36.1155 3.61322
13.9012 36.04 4.52594
13.8862 35.9831 5.43563
13.8806 35.9314 6.34991
13.8745 35.8787 7.27561
0.197794 0.231012 -0.348115
0.198873 0.233033 -0.332097
0.219922 0.287512 -0.346292
0.242155 0.344373 -0.358723
0.280352 0.442565 -0.389122
0.38439 0.711085 -0.495343
1.44908 3.45879 -1.69709
1.54232 3.69527 -1.6871
1.64762 3.96488 -1.67919
1.76275 4.25697 -1.66638
1.89254 4.58645 -1.65085
2.04317 4.97135 -1.63712
2.22927 5.44415 -1.62936
2.44242 5.98869 -1.61518
2.71176 6.67318 -1.60735
3.02338 7.46455 -1.58728
3.38217 8.49268 -1.56552
3.88378 9.78903 -1.53751
4.58068 11.5842 -1.50579
5.65171 14.344 -1.48362
6.87428 17.4989 -1.35403
9.28634 23.7139 -1.22144
12.8983 33.0135 -0.851457
14.1106 36.1254 -0.0226692
14.1634 36.2245 0.886581
14.1577 36.1733 1.80135
14.1397 36.1087 2.70775
14.1383 36.0684 3.61667
14.121 35.9875 4.52954
14.1094 35.9398 5.44131
14.0991 35.877 6.35456
14.0969 35.8351 7.28312
0.205822 0.243029 -0.356253
0.197361 0.220969 -0.325208
0.22202 0.283248 -0.344392
0.245811 0.343341 -0.358697
0.287228 0.448038 -0.392519
0.387618 0.702324 -0.492064
1.46732 3.44216 -1.6932
1.56863 3.69542 -1.6907
1.67288 3.95538 -1.67915
1.78953 4.24893 -1.66698
1.91852 4.57051 -1.64902
2.07861 4.97016 -1.6404
2.26159 5.42975 -1.62881
2.48187 5.97982 -1.61652
2.75453 6.66096 -1.60814
3.07225 7.45411 -1.58872
3.43197 8.47157 -1.56515
3.93914 9.75512 -1.53579
4.65259 11.5672 -1.5069
5.74689 14.3393 -1.48635
6.97385 17.4433 -1.35284
9.43839 23.6957 -1.22313
10.2481 25.7268 -0.67057
14.3207 36.0265 -0.0225496
14.3838 36.1687 0.887342
14.3757 36.1119 1.80249
14.3693 36.0598 2.71052
14.3655 36.014 3.61976
14.3495 35.9558 4.53593
14.3387 35.8926 5.44699
14.3302 35.8352 6.36213
14.3164 35.7829 7.28916
0.205815 0.234161 -0.351127
0.20239 0.224954 -0.328125
0.225343 0.282309 -0.344365
0.249579 0.342232 -0.358671
0.288893 0.439931 -0.389073
0.391484 0.695233 -0.489599
1.49144 3.43889 -1.69549
1.59022 3.68119 -1.68849
1.7008 3.95273 -1.68185
1.81573 4.23683 -1.6663
1.9501 4.56653 -1.65137
2.10905 4.95638 -1.6398
2.2947 5.41481 -1.62827
2.51969 5.96717 -1.61694
2.79494 6.64312 -1.60768
3.12103 7.44347 -1.59015
3.48244 8.44773 -1.56445
4.0024 9.74111 -1.53713
4.72292 11.5397 -1.50685
5.8336 14.3053 -1.48629
7.07008 17.3798 -1.35109
9.58942 23.6619 -1.22417
10.38 25.6102 -0.669078
10.4438 25.7436 -0.0213252
16.5807 41.0169 1.01036
14.6316 36.1264 1.80763
14.6004 36.0131 2.71356
14.6001 35.9764 3.6247
-0.00192659 -0.28669 -0.018489
-0.00192659 -0.28669 -0.018489
14.5547 35.7755 6.36678
-0.00192659 -0.28669 -0.018489
0.206115 0.227069 -0.347015
0.207193 0.229092 -0.331035
0.226523 0.27649 -0.341523
0.253069 0.341247 -0.358642
0.293633 0.440401 -0.389899
0.403154 0.708685 -0.496892
1.51433 3.43604 -1.69776
1.61588 3.68125 -1.69209
1.72446 3.94359 -1.68182
1.84387 4.23401 -1.66883
1.97654 4.55414 -1.65074
2.1376 4.94309 -1.63922
2.32872 5.40766 -1.62975
2.55529 5.95524 -1.61736
2.83888 6.64036 -1.61056
3.16267 7.42266 -1.58937
3.53491 8.43763 -1.56603
4.05758 9.71714 -1.5368
4.79632 11.532 -1.50911
