ply
format ascii 1.0
comment Created by Open3D
element vertex 2454
property double x
property double y
property double z
end_header
-2.547 -2.296 -0.874
-2.556 -2.318 -0.88
-2.533 -2.312 -0.874
-2.52 -2.314 -0.872
-2.505 -2.308 -0.867
-2.398 -2.329 -0.849
-2.349 -2.333 -0.839
-2.323 -2.321 -0.832
-2.31 -2.323 -0.829
-2.299 -2.326 -0.828
-2.279 -2.32 -0.823
-2.252 -2.307 -0.814
-2.254 -2.324 -0.818
-2.236 -2.312 -0.812
-2.226 -2.316 -0.811
-2.212 -2.316 -0.808
-2.21 -2.329 -0.81
-2.209 -2.343 -0.813
-2.191 -2.338 -0.809
-1.227 -2.348 -0.648
-1.211 -2.335 -0.642
-1.091 -3.513 -0.946
-1.072 -3.55 -0.955
-1.021 -3.586 -0.961
-1.015 -3.606 -0.966
-1.001 -3.576 -0.956
-0.987 -3.57 -0.954
-0.55 -2.393 -0.591
-0.532 -2.346 -0.577
-0.521 -2.329 -0.571
-0.519 -2.337 -0.574
-0.516 -2.361 -0.58
-0.503 -2.335 -0.572
-0.5 -2.359 -0.579
-0.493 -2.358 -0.578
-0.481 -2.337 -0.571
-0.477 -2.34 -0.572
-0.473 -2.355 -0.576
-0.464 -2.35 -0.574
-0.451 -2.318 -0.564
-0.447 -2.34 -0.57
-0.441 -2.351 -0.573
-0.429 -2.324 -0.565
-0.431 -2.355 -0.574
-0.419 -2.332 -0.566
-0.416 -2.361 -0.575
-0.403 -2.329 -0.565
-0.396 -2.328 -0.564
-0.391 -2.344 -0.569
-0.389 -2.384 -0.58
-0.377 -2.325 -0.562
-0.37 -2.334 -0.565
-0.364 -2.339 -0.566
-0.356 -2.338 -0.565
-0.335 -2.374 -0.575
-0.329 -2.387 -0.578
-0.316 -2.346 -0.566
0.023 -2.914 -0.725
0.033 -2.914 -0.725
0.042 -2.947 -0.734
0.053 -2.989 -0.746
0.058 -2.997 -0.748
0.069 -3.056 -0.766
0.08 -3.082 -0.774
0.231 -6.352 -1.723
0.25 -6.329 -1.716
0.258 -6.286 -1.704
0.276 -6.231 -1.688
0.292 -6.169 -1.671
0.303 -6.015 -1.626
0.325 -6.073 -1.643
0.357 -6.281 -1.704
0.371 -6.19 -1.678
0.371 -6.034 -1.633
0.399 -6.165 -1.671
0.4 -5.915 -1.599
0.417 -5.892 -1.593
0.447 -6.042 -1.637
0.482 -6.236 -1.694
0.49 -6.089 -1.651
0.504 -6.148 -1.668
0.525 -6.159 -1.672
0.546 -6.173 -1.677
0.564 -6.16 -1.673
0.587 -6.2 -1.686
0.605 -6.181 -1.681
0.602 -5.961 -1.617
0.603 -5.886 -1.595
0.627 -5.936 -1.61
0.639 -5.876 -1.594
0.657 -5.869 -1.592
0.687 -5.958 -1.619
0.694 -5.864 -1.592
0.719 -5.987 -1.628
0.735 -5.964 -1.622
0.746 -5.906 -1.606
0.776 -5.984 -1.629
0.802 -6.038 -1.646
0.835 -6.135 -1.675
0.863 -6.195 -1.694
0.864 -6.135 -1.676
0.871 -6.044 -1.651
0.885 -6.008 -1.641
0.906 -6.02 -1.645
0.913 -5.945 -1.624
0.951 -6.062 -1.659
0.957 -5.981 -1.636
0.981 -6.066 -1.662
1.019 -6.171 -1.694
1.018 -6.053 -1.66
1.063 -6.197 -1.703
1.082 -6.188 -1.701
1.113 -6.251 -1.721
1.133 -6.249 -1.721
1.134 -6.2 -1.707
1.167 -6.268 -1.729
1.182 -6.24 -1.721
1.204 -6.247 -1.725
1.23 -6.274 -1.734
1.239 -6.221 -1.719
1.253 -6.236 -1.724
1.269 -6.219 -1.72
1.285 -6.194 -1.714
1.303 -6.184 -1.712
1.331 -6.22 -1.724
1.35 -6.215 -1.724
1.371 -6.215 -1.725
1.37 -6.168 -1.712
1.396 -6.192 -1.72
1.372 -6 -1.665
1.417 -6.106 -1.697
1.436 -6.1 -1.697
1.461 -6.121 -1.705
1.489 -6.154 -1.716
1.501 -6.157 -1.717
1.516 -6.138 -1.713
1.542 -6.161 -1.721
1.541 -6.074 -1.697
1.57 -6.11 -1.709
1.599 -6.14 -1.72
1.621 -6.146 -1.723
1.627 -6.129 -1.719
1.646 -6.124 -1.719
1.658 -6.093 -1.711
1.683 -6.108 -1.717
1.704 -6.108 -1.719
1.71 -6.056 -1.705
1.709 -6.017 -1.694
1.722 -5.993 -1.688
1.73 -5.951 -1.677
1.746 -5.936 -1.674
1.762 -5.923 -1.672
1.778 -5.908 -1.669
1.8 -5.912 -1.672
1.811 -5.917 -1.674
1.825 -5.896 -1.67
1.844 -5.89 -1.67
1.862 -5.883 -1.669
1.882 -5.882 -1.671
1.901 -5.878 -1.671
1.922 -5.88 -1.673
1.933 -5.882 -1.675
1.948 -5.865 -1.672
1.969 -5.866 -1.674
1.986 -5.858 -1.673
2.007 -5.857 -1.675
2.03 -5.865 -1.68
2.036 -5.853 -1.677
2.06 -5.863 -1.682
2.083 -5.867 -1.685
2.099 -5.855 -1.683
2.118 -5.851 -1.684
2.142 -5.86 -1.689
2.159 -5.848 -1.687
2.173 -5.857 -1.691
2.199 -5.87 -1.697
2.213 -5.852 -1.694
2.234 -5.852 -1.696
2.256 -5.854 -1.699
2.276 -5.851 -1.7
2.298 -5.854 -1.704
2.308 -5.853 -1.704
2.33 -5.854 -1.707
2.348 -5.845 -1.706
2.374 -5.857 -1.712
2.391 -5.846 -1.711
2.407 -5.833 -1.71
2.413 -5.822 -1.707
2.432 -5.815 -1.707
2.458 -5.827 -1.714
2.483 -5.833 -1.718
2.504 -5.832 -1.72
2.518 -5.814 -1.717
2.537 -5.808 -1.717
2.55 -5.812 -1.72
2.57 -5.808 -1.721
2.589 -5.801 -1.722
2.604 -5.786 -1.72
2.62 -5.775 -1.719
2.642 -5.773 -1.721
2.656 -5.758 -1.719
2.68 -5.785 -1.729
2.69 -5.759 -1.723
2.702 -5.737 -1.719
2.719 -5.727 -1.718
2.738 -5.722 -1.719
2.747 -5.694 -1.713
2.765 -5.685 -1.713
2.781 -5.695 -1.717
2.797 -5.683 -1.716
2.81 -5.665 -1.714
2.828 -5.656 -1.714
2.841 -5.637 -1.71
3.124 -5.554 -1.727
3.143 -5.547 -1.729
3.15 -5.519 -1.722
3.179 -5.529 -1.729
3.193 -5.514 -1.727
3.204 -5.492 -1.724
3.218 -5.477 -1.722
3.223 -5.466 -1.72
3.236 -5.449 -1.717
3.249 -5.432 -1.715
3.272 -5.432 -1.719
3.286 -5.416 -1.717
3.307 -5.413 -1.719
3.315 -5.406 -1.719
3.328 -5.389 -1.716
3.349 -5.385 -1.719
3.369 -5.379 -1.72
3.377 -5.356 -1.716
3.397 -5.35 -1.717
3.415 -5.341 -1.718
3.426 -5.339 -1.719
3.442 -5.328 -1.719
3.467 -5.33 -1.724
3.479 -5.311 -1.721
3.492 -5.295 -1.719
3.509 -5.284 -1.719
3.527 -5.275 -1.72
3.536 -5.271 -1.72
3.559 -5.269 -1.724
3.571 -5.252 -1.721
3.586 -5.237 -1.72
3.599 -5.221 -1.719
3.613 -5.207 -1.717
3.624 -5.206 -1.719
3.643 -5.197 -1.72
3.653 -5.177 -1.717
3.672 -5.17 -1.719
3.684 -5.152 -1.716
3.698 -5.137 -1.715
3.721 -5.135 -1.719
3.729 -5.129 -1.719
3.744 -5.116 -1.718
3.756 -5.099 -1.716
3.77 -5.085 -1.715
3.784 -5.07 -1.714
3.802 -5.061 -1.715
3.82 -5.052 -1.716
3.818 -5.032 -1.711
3.842 -5.031 -1.715
3.848 -5.006 -1.711
3.862 -4.993 -1.71
3.88 -4.984 -1.711
3.9 -4.976 -1.713
3.912 -4.976 -1.715
3.918 -4.952 -1.711
3.928 -4.932 -1.708
3.948 -4.925 -1.71
3.962 -4.911 -1.71
3.984 -4.906 -1.712
3.986 -4.878 -1.706
3.998 -4.877 -1.709
4.014 -4.865 -1.709
4.036 -4.861 -1.712
4.043 -4.838 -1.708
4.066 -4.834 -1.711
4.073 -4.812 -1.708
4.091 -4.802 -1.709
4.096 -4.793 -1.708
4.111 -4.78 -1.708
4.125 -4.766 -1.707
4.146 -4.76 -1.71
4.156 -4.741 -1.708
4.168 -4.725 -1.707
4.183 -4.712 -1.707
4.186 -4.701 -1.705
4.205 -4.692 -1.707
4.221 -4.681 -1.707
4.233 -4.664 -1.706
4.253 -4.657 -1.709
4.266 -4.642 -1.708
4.266 -4.627 -1.705
4.284 -4.618 -1.706
4.307 -4.613 -1.71
4.317 -4.595 -1.708
4.331 -4.581 -1.708
4.343 -4.565 -1.707
4.354 -4.547 -1.705
4.366 -4.546 -1.707
4.384 -4.536 -1.709
4.389 -4.513 -1.705
4.406 -4.502 -1.706
4.428 -4.496 -1.71
4.441 -4.481 -1.709
4.455 -4.467 -1.709
4.474 -4.472 -1.714
4.486 -4.455 -1.713
4.5 -4.441 -1.713
4.513 -4.427 -1.713
4.518 -4.403 -1.709
4.532 -4.389 -1.709
4.548 -4.391 -1.713
4.562 -4.377 -1.713
4.567 -4.355 -1.71
4.584 -4.343 -1.711
4.586 -4.318 -1.706
4.611 -4.314 -1.711
4.63 -4.305 -1.713
4.628 -4.29 -1.71
4.64 -4.274 -1.709
4.659 -4.264 -1.711
4.666 -4.243 -1.709
4.688 -4.236 -1.712
4.709 -4.229 -1.715
4.704 -4.198 -1.708
4.716 -4.195 -1.71
4.73 -4.181 -1.71
4.735 -4.159 -1.707
4.751 -4.147 -1.709
4.777 -4.143 -1.714
4.776 -4.116 -1.708
4.795 -4.106 -1.71
4.798 -4.096 -1.709
4.805 -4.076 -1.707
4.827 -4.068 -1.71
4.845 -4.058 -1.712
4.852 -4.038 -1.71
4.866 -4.024 -1.711
4.877 -4.02 -1.712
4.888 -4.003 -1.712
4.908 -3.994 -1.715
4.927 -3.983 -1.717
4.926 -3.957 -1.712
4.953 -3.953 -1.717
4.957 -3.931 -1.714
4.97 -3.929 -1.717
4.978 -3.909 -1.715
4.999 -3.901 -1.719
5.018 -3.89 -1.721
5.045 -3.886 -1.726
5.071 -3.88 -1.731
5.103 -3.879 -1.739
5.125 -3.883 -1.744
5.154 -3.879 -1.75
5.195 -3.885 -1.761
5.218 -3.877 -1.765
5.246 -3.872 -1.77
5.271 -3.864 -1.775
5.294 -3.855 -1.779
5.326 -3.866 -1.788
5.362 -3.866 -1.797
5.38 -3.854 -1.799
5.383 -3.83 -1.795
5.399 -3.817 -1.797
5.419 -3.805 -1.8
5.432 -3.801 -1.802
5.439 -3.781 -1.8
5.455 -3.767 -1.802
5.472 -3.753 -1.804
5.471 -3.727 -1.799
5.479 -3.708 -1.798
5.494 -3.692 -1.799
5.486 -3.674 -1.794
5.499 -3.658 -1.795
5.504 -3.637 -1.793
5.509 -3.615 -1.79
5.522 -3.599 -1.791
5.536 -3.584 -1.792
5.531 -3.556 -1.787
5.527 -3.541 -1.783
5.538 -3.524 -1.783
5.552 -3.508 -1.784
5.549 -3.482 -1.779
5.565 -3.467 -1.781
5.571 -3.447 -1.779
5.568 -3.433 -1.777
5.572 -3.411 -1.774
5.578 -3.391 -1.773
5.588 -3.373 -1.773
5.606 -3.36 -1.775
5.606 -3.336 -1.772
5.617 -3.319 -1.772
5.608 -3.302 -1.767
5.625 -3.288 -1.769
5.639 -3.272 -1.77
5.636 -3.247 -1.766
5.651 -3.232 -1.768
5.658 -3.213 -1.766
5.655 -3.187 -1.762
5.666 -3.182 -1.764
5.67 -3.161 -1.762
5.679 -3.143 -1.762
5.696 -3.129 -1.764
5.696 -3.105 -1.761
5.697 -3.083 -1.758
5.707 -3.065 -1.758
5.715 -3.058 -1.759
5.73 -3.042 -1.761
5.736 -3.023 -1.76
5.731 -2.998 -1.755
5.741 -2.979 -1.755
5.754 -2.963 -1.756
5.755 -2.952 -1.755
5.759 -2.932 -1.754
5.763 -2.911 -1.752
5.777 -2.895 -1.754
5.778 -2.873 -1.751
5.783 -2.853 -1.75
5.787 -2.833 -1.748
5.797 -2.826 -1.75
5.799 -2.804 -1.748
5.807 -2.786 -1.748
5.807 -2.764 -1.745
5.814 -2.745 -1.744
5.828 -2.729 -1.746
5.842 -2.713 -1.748
5.844 -2.703 -1.747
5.839 -2.678 -1.743
5.851 -2.661 -1.744
5.85 -2.639 -1.741
5.852 -2.618 -1.739
5.86 -2.599 -1.739
5.866 -2.591 -1.739
5.854 -2.564 -1.733
5.875 -2.551 -1.737
5.867 -2.526 -1.732
5.876 -2.508 -1.733
5.904 -2.498 -1.739
5.889 -2.47 -1.731
5.889 -2.459 -1.73
5.9 -2.442 -1.731
5.908 -2.423 -1.731
5.908 -2.402 -1.729
5.925 -2.387 -1.732
5.914 -2.361 -1.726
5.94 -2.349 -1.732
5.922 -2.332 -1.725
5.933 -2.315 -1.726
5.934 -2.294 -1.725
5.949 -2.278 -1.727
5.936 -2.252 -1.721
5.95 -2.236 -1.723
5.952 -2.215 -1.721
5.955 -2.206 -1.721
5.928 -2.175 -1.711
5.975 -2.17 -1.723
5.965 -2.146 -1.718
5.968 -2.126 -1.717
5.986 -2.111 -1.72
5.975 -2.096 -1.716
5.981 -2.077 -1.716
6.008 -2.065 -1.722
5.994 -2.04 -1.716
5.999 -2.02 -1.715
5.994 -1.998 -1.712
5.987 -1.975 -1.708
6.011 -1.972 -1.714
6.019 -1.954 -1.715
6.005 -1.928 -1.709
6.007 -1.908 -1.707
6.006 -1.887 -1.705
6.004 -1.866 -1.703
6.023 -1.851 -1.707
6.022 -1.841 -1.706
6.028 -1.822 -1.706
6.019 -1.798 -1.701
6.037 -1.783 -1.705
6.017 -1.757 -1.697
6.035 -1.742 -1.701
6.054 -1.726 -1.705
6.031 -1.709 -1.697
6.043 -1.693 -1.7
6.052 -1.675 -1.701
6.046 -1.653 -1.697
6.057 -1.635 -1.699
6.057 -1.615 -1.697
6.058 -1.595 -1.696
6.064 -1.586 -1.697
6.065 -1.566 -1.696
6.065 -1.546 -1.695
6.075 -1.528 -1.696
6.074 -1.507 -1.695
6.075 -1.487 -1.694
6.072 -1.477 -1.692
6.084 -1.459 -1.694
6.083 -1.439 -1.692
6.08 -1.418 -1.69
6.101 -1.403 -1.695
6.1 -1.382 -1.694
6.104 -1.363 -1.694
6.101 -1.352 -1.692
6.1 -1.332 -1.69
6.106 -1.313 -1.691
6.108 -1.294 -1.69
6.116 -1.275 -1.691
6.114 -1.255 -1.69
6.116 -1.245 -1.69
6.122 -1.226 -1.69
6.118 -1.206 -1.688
6.122 -1.186 -1.688
6.114 -1.165 -1.685
6.129 -1.148 -1.688
6.131 -1.128 -1.687
6.123 -1.117 -1.685
6.117 -1.096 -1.682
6.119 -1.077 -1.681
6.135 -1.06 -1.685
6.146 -1.041 -1.687
6.128 -1.019 -1.681
6.141 -1.001 -1.684
6.137 -0.99 -1.682
6.138 -0.971 -1.682
6.149 -0.953 -1.684
6.142 -0.932 -1.681
6.143 -0.912 -1.681
6.146 -0.893 -1.681
6.162 -0.876 -1.685
6.148 -0.864 -1.68
6.155 -0.845 -1.681
6.157 -0.826 -1.681
6.15 -0.805 -1.678
6.168 -0.788 -1.683
6.173 -0.769 -1.683
6.176 -0.759 -1.684
6.167 -0.738 -1.681
6.165 -0.719 -1.68
6.158 -0.698 -1.677
6.171 -0.68 -1.68
6.166 -0.66 -1.678
6.168 -0.641 -1.678
6.169 -0.631 -1.678
6.175 -0.612 -1.679
6.184 -0.593 -1.681
6.184 -0.574 -1.681
6.186 -0.554 -1.681
6.199 -0.536 -1.684
6.187 -0.515 -1.68
6.18 -0.505 -1.678
6.186 -0.486 -1.679
6.187 -0.466 -1.679
6.206 -0.448 -1.684
6.2 -0.428 -1.682
6.203 -0.409 -1.682
6.197 -0.389 -1.68
6.191 -0.379 -1.678
6.187 -0.359 -1.677
6.186 -0.339 -1.676
6.193 -0.32 -1.678
6.18 -0.3 -1.674
6.198 -0.281 -1.679
6.184 -0.261 -1.675
6.19 -0.252 -1.676
6.193 -0.232 -1.677
6.197 -0.213 -1.678
6.188 -0.193 -1.675
6.187 -0.174 -1.675
6.188 -0.154 -1.675
6.186 -0.145 -1.674
6.175 -0.125 -1.671
6.185 -0.106 -1.673
6.187 -0.086 -1.674
6.183 -0.067 -1.673
6.17 -0.047 -1.669
6.178 -0.028 -1.671
6.188 -0.018 -1.674
6.002 0.013 -1.663
6.013 0.032 -1.667
6.011 0.042 -1.666
6 0.06 -1.663
6.007 0.079 -1.665
6.011 0.098 -1.666
6.01 0.117 -1.666
6.012 0.136 -1.667
6.008 0.145 -1.666
6.005 0.164 -1.665
5.986 0.183 -1.659
5.997 0.202 -1.663
5.99 0.22 -1.661
5.999 0.24 -1.664
6.006 0.259 -1.666
6.004 0.268 -1.666
6.007 0.287 -1.667
5.994 0.305 -1.663
5.993 0.324 -1.663
6.004 0.344 -1.667
5.987 0.362 -1.662
5.992 0.381 -1.664
6.005 0.391 -1.668
5.994 0.409 -1.665
6.004 0.429 -1.668
5.991 0.447 -1.665
5.976 0.465 -1.661
5.996 0.485 -1.667
5.992 0.504 -1.667
5.999 0.514 -1.669
5.994 0.532 -1.668
5.992 0.551 -1.668
5.998 0.571 -1.67
5.985 0.589 -1.667
5.988 0.608 -1.668
5.977 0.626 -1.666
5.993 0.637 -1.671
5.976 0.654 -1.666
5.987 0.674 -1.67
5.979 0.693 -1.668
5.971 0.711 -1.667
5.975 0.73 -1.668
5.976 0.74 -1.669
5.962 0.757 -1.666
5.976 0.778 -1.671
5.978 0.797 -1.672
5.977 0.816 -1.672
5.973 0.835 -1.672
5.964 0.853 -1.67
5.98 0.864 -1.675
5.981 0.884 -1.676
5.973 0.902 -1.675
5.958 0.919 -1.671
5.954 0.937 -1.671
5.937 0.954 -1.667
5.955 0.966 -1.672
5.937 0.982 -1.668
5.962 1.006 -1.676
5.93 1.02 -1.668
5.955 1.043 -1.676
5.935 1.059 -1.671
5.936 1.078 -1.672
5.939 1.089 -1.674
5.932 1.107 -1.673
5.936 1.127 -1.675
5.944 1.147 -1.679
5.933 1.165 -1.676
5.94 1.185 -1.68
5.929 1.203 -1.678
5.908 1.208 -1.672
5.905 1.227 -1.672
5.914 1.248 -1.676
5.917 1.268 -1.678
5.9 1.284 -1.674
5.902 1.304 -1.676
5.926 1.328 -1.684
5.905 1.334 -1.679
5.903 1.352 -1.679
5.921 1.376 -1.686
5.911 1.393 -1.684
5.906 1.412 -1.684
5.906 1.431 -1.686
5.899 1.45 -1.685
5.895 1.458 -1.684
5.896 1.478 -1.686
5.884 1.495 -1.684
5.892 1.517 -1.688
5.888 1.535 -1.688
5.879 1.553 -1.687
5.871 1.56 -1.685
5.872 1.58 -1.687
5.874 1.601 -1.689
5.871 1.62 -1.69
5.873 1.64 -1.692
5.87 1.659 -1.692
5.868 1.679 -1.694
5.88 1.692 -1.698
5.86 1.706 -1.694
5.862 1.727 -1.696
5.86 1.746 -1.697
5.844 1.761 -1.694
5.855 1.785 -1.699
5.847 1.803 -1.698
5.83 1.807 -1.694
5.841 1.831 -1.699
5.82 1.844 -1.694
5.82 1.864 -1.696
5.823 1.886 -1.699
5.812 1.902 -1.697
5.797 1.917 -1.694
5.808 1.931 -1.699
5.802 1.95 -1.699
5.794 1.967 -1.698
5.79 1.986 -1.699
5.783 2.004 -1.699
5.781 2.024 -1.7
5.778 2.033 -1.7
5.771 2.051 -1.7
5.763 2.068 -1.699
5.762 2.088 -1.701
5.75 2.104 -1.699
5.729 2.117 -1.695
5.74 2.142 -1.7
5.735 2.15 -1.7
5.717 2.164 -1.696
5.719 2.185 -1.699
5.716 2.205 -1.7
5.702 2.22 -1.698
5.708 2.243 -1.702
5.693 2.248 -1.699
5.675 2.261 -1.695
5.688 2.287 -1.702
5.683 2.305 -1.702
5.652 2.314 -1.695
5.673 2.343 -1.704
5.659 2.358 -1.702
5.664 2.371 -1.704
5.653 2.387 -1.703
5.64 2.402 -1.702
5.625 2.417 -1.699
5.632 2.441 -1.704
5.612 2.453 -1.7
5.594 2.466 -1.696
5.62 2.488 -1.706
5.614 2.507 -1.707
5.593 2.519 -1.703
5.585 2.536 -1.703
5.588 2.559 -1.706
5.576 2.574 -1.705
5.568 2.592 -1.705
5.566 2.602 -1.706
5.563 2.621 -1.707
5.555 2.639 -1.707
5.553 2.66 -1.71
5.541 2.675 -1.708
5.545 2.699 -1.712
5.54 2.718 -1.713
5.537 2.727 -1.714
5.543 2.751 -1.719
5.539 2.771 -1.72
5.529 2.788 -1.72
5.522 2.806 -1.72
5.526 2.83 -1.725
5.514 2.846 -1.724
5.501 2.85 -1.721
5.502 2.873 -1.724
5.485 2.886 -1.721
5.474 2.902 -1.721
5.48 2.927 -1.726
5.484 2.952 -1.731
5.471 2.956 -1.728
5.472 2.978 -1.731
5.459 2.994 -1.73
5.453 3.013 -1.731
5.447 3.032 -1.732
5.434 3.047 -1.731
5.423 3.063 -1.731
5.415 3.07 -1.729
5.388 3.077 -1.724
5.352 3.079 -1.715
5.327 3.087 -1.71
5.314 3.102 -1.708
5.3 3.116 -1.707
5.288 3.131 -1.706
5.282 3.139 -1.706
5.277 3.158 -1.707
5.26 3.171 -1.705
5.237 3.179 -1.7
5.207 3.184 -1.694
5.215 3.211 -1.7
5.194 3.221 -1.696
5.172 3.219 -1.69
5.172 3.241 -1.694
5.154 3.252 -1.691
5.147 3.27 -1.692
5.143 3.291 -1.694
5.121 3.3 -1.69
5.12 3.322 -1.694
5.125 3.336 -1.697
5.098 3.342 -1.691
5.081 3.354 -1.689
5.077 3.374 -1.691
5.043 3.374 -1.683
5.042 3.396 -1.686
5.039 3.406 -1.687
5.026 3.42 -1.686
4.999 3.425 -1.68
4.998 3.447 -1.684
4.968 3.45 -1.677
4.973 3.476 -1.683
4.974 3.5 -1.687
4.959 3.502 -1.684
4.93 3.504 -1.677
4.937 3.533 -1.684
4.904 3.533 -1.676
4.887 3.544 -1.674
4.874 3.558 -1.673
4.857 3.569 -1.671
4.865 3.586 -1.676
4.857 3.604 -1.677
4.836 3.612 -1.674
4.817 3.622 -1.671
4.817 3.645 -1.675
4.793 3.651 -1.67
4.777 3.65 -1.666
4.779 3.676 -1.671
4.757 3.682 -1.667
4.74 3.694 -1.666
4.747 3.723 -1.672
4.711 3.719 -1.663
4.707 3.74 -1.666
4.702 3.748 -1.667
4.671 3.747 -1.659
4.677 3.776 -1.666
4.664 3.79 -1.666
4.637 3.792 -1.66
4.624 3.806 -1.659
4.625 3.831 -1.664
4.606 3.828 -1.659
4.585 3.835 -1.656
4.577 3.853 -1.658
4.572 3.873 -1.66
4.544 3.874 -1.654
4.533 3.889 -1.655
4.521 3.904 -1.655
4.521 3.916 -1.657
4.507 3.929 -1.657
4.495 3.943 -1.657
4.478 3.953 -1.655
4.441 3.946 -1.645
4.431 3.962 -1.646
4.432 3.988 -1.651
4.416 3.986 -1.647
4.422 4.016 -1.655
4.402 4.024 -1.652
4.376 4.026 -1.647
4.358 4.034 -1.645
4.357 4.058 -1.649
4.345 4.073 -1.65
4.335 4.076 -1.648
4.309 4.078 -1.643
4.287 4.082 -1.639
4.286 4.108 -1.644
4.273 4.121 -1.644
4.267 4.141 -1.647
4.261 4.161 -1.65
4.249 4.163 -1.647
4.243 4.183 -1.65
4.215 4.181 -1.644
4.204 4.197 -1.645
4.184 4.203 -1.642
4.183 4.229 -1.647
4.175 4.234 -1.647
4.148 4.233 -1.641
4.119 4.23 -1.634
4.118 4.255 -1.639
4.096 4.26 -1.636
4.092 4.282 -1.64
4.089 4.306 -1.645
4.071 4.3 -1.639
4.049 4.305 -1.636
4.029 4.31 -1.633
4.025 4.333 -1.637
4.01 4.344 -1.637
3.991 4.351 -1.634
3.981 4.368 -1.636
3.981 4.381 -1.639
3.954 4.379 -1.633
3.939 4.39 -1.633
3.927 4.404 -1.633
3.92 4.425 -1.637
3.903 4.433 -1.635
3.885 4.441 -1.633
3.872 4.44 -1.63
3.858 4.452 -1.63
3.84 4.46 -1.629
3.841 4.489 -1.635
3.823 4.497 -1.634
3.817 4.519 -1.638
3.797 4.524 -1.635
3.787 4.527 -1.634
3.761 4.524 -1.628
3.745 4.534 -1.627
3.74 4.556 -1.631
3.725 4.568 -1.631
3.706 4.574 -1.629
3.7 4.596 -1.633
3.699 4.609 -1.636
3.668 4.6 -1.628
3.656 4.614 -1.629
3.651 4.638 -1.634
3.636 4.649 -1.634
3.617 4.655 -1.631
3.613 4.665 -1.633
3.592 4.669 -1.63
3.568 4.668 -1.626
3.554 4.679 -1.626
3.545 4.698 -1.629
3.533 4.713 -1.63
3.52 4.726 -1.631
3.515 4.735 -1.632
3.495 4.739 -1.63
3.48 4.75 -1.63
3.452 4.743 -1.623
3.436 4.752 -1.622
3.421 4.763 -1.622
3.414 4.784 -1.626
3.411 4.796 -1.629
3.399 4.811 -1.63
3.374 4.808 -1.625
3.364 4.826 -1.628
3.341 4.826 -1.624
3.329 4.841 -1.626
3.311 4.847 -1.624
3.292 4.836 -1.618
3.286 4.859 -1.623
3.269 4.868 -1.622
3.249 4.87 -1.619
3.241 4.892 -1.623
3.212 4.881 -1.616
3.191 4.883 -1.613
3.183 4.888 -1.613
3.169 4.9 -1.614
3.154 4.91 -1.614
3.133 4.911 -1.611
3.118 4.921 -1.611
3.107 4.939 -1.614
3.099 4.96 -1.618
3.079 4.946 -1.611
3.064 4.957 -1.611
3.046 4.962 -1.61
3.029 4.969 -1.609
3.012 4.976 -1.608
2.989 4.974 -1.604
2.978 4.991 -1.607
2.972 4.999 -1.608
2.961 5.015 -1.61
2.942 5.019 -1.609
2.92 5.019 -1.605
2.906 5.031 -1.606
2.891 5.04 -1.606
2.868 5.038 -1.602
2.858 5.039 -1.601
2.844 5.051 -1.602
2.826 5.057 -1.601
2.809 5.062 -1.6
2.8 5.084 -1.605
2.78 5.085 -1.602
2.777 5.117 -1.61
2.766 5.116 -1.608
2.739 5.105 -1.601
2.728 5.123 -1.605
2.707 5.122 -1.601
2.692 5.134 -1.602
2.672 5.134 -1.6
2.677 5.163 -1.608
2.644 5.139 -1.597
2.63 5.153 -1.599
2.62 5.173 -1.603
2.599 5.171 -1.6
2.589 5.191 -1.604
2.564 5.182 -1.598
2.554 5.183 -1.597
2.532 5.18 -1.593
2.526 5.209 -1.6
2.501 5.198 -1.594
2.491 5.219 -1.598
2.48 5.238 -1.602
2.456 5.23 -1.597
2.446 5.251 -1.601
2.441 5.262 -1.604
2.417 5.254 -1.598
2.4 5.262 -1.598
2.39 5.283 -1.603
2.363 5.268 -1.596
2.356 5.296 -1.602
2.348 5.3 -1.602
2.32 5.283 -1.594
2.302 5.287 -1.593
2.293 5.31 -1.598
2.266 5.294 -1.591
2.252 5.306 -1.593
2.248 5.345 -1.603
2.228 5.32 -1.594
2.209 5.322 -1.592
2.201 5.35 -1.599
2.176 5.338 -1.593
2.163 5.353 -1.596
2.146 5.36 -1.596
2.125 5.356 -1.592
2.12 5.367 -1.594
2.108 5.386 -1.598
2.08 5.366 -1.59
2.068 5.383 -1.593
2.05 5.387 -1.593
2.033 5.394 -1.593
2.019 5.409 -1.596
2.015 5.423 -1.599
1.993 5.415 -1.594
1.978 5.427 -1.596
1.961 5.435 -1.597
1.936 5.419 -1.59
1.922 5.434 -1.593
1.904 5.437 -1.592
1.894 5.434 -1.59
1.881 5.453 -1.594
1.861 5.451 -1.592
1.846 5.463 -1.593
1.834 5.483 -1.598
1.821 5.503 -1.602
1.795 5.482 -1.594
1.788 5.49 -1.596
1.771 5.496 -1.596
1.755 5.505 -1.597
1.736 5.507 -1.596
1.72 5.514 -1.596
1.706 5.532 -1.6
1.692 5.516 -1.594
1.681 5.542 -1.601
1.662 5.543 -1.6
1.641 5.536 -1.596
1.626 5.548 -1.598
1.608 5.553 -1.598
1.588 5.549 -1.595
1.579 5.582 -1.604
1.568 5.579 -1.602
1.551 5.585 -1.602
1.532 5.583 -1.6
1.515 5.589 -1.601
1.496 5.591 -1.6
1.481 5.604 -1.602
1.465 5.615 -1.604
1.453 5.604 -1.6
1.437 5.616 -1.602
1.421 5.628 -1.605
1.404 5.634 -1.605
1.388 5.646 -1.608
1.369 5.643 -1.605
1.351 5.649 -1.606
1.343 5.653 -1.606
1.325 5.655 -1.606
1.306 5.656 -1.605
1.288 5.66 -1.605
1.272 5.671 -1.607
1.254 5.675 -1.607
1.246 5.681 -1.608
1.232 5.702 -1.613
1.217 5.719 -1.617
1.197 5.713 -1.614
1.18 5.722 -1.616
1.16 5.715 -1.613
1.139 5.705 -1.609
1.132 5.715 -1.611
1.116 5.728 -1.614
1.1 5.74 -1.617
1.081 5.742 -1.616
1.063 5.745 -1.616
1.044 5.741 -1.614
1.026 5.746 -1.614
1.016 5.74 -1.612
0.998 5.747 -1.613
0.981 5.754 -1.614
0.963 5.759 -1.615
0.943 5.749 -1.611
0.928 5.771 -1.617
0.907 5.753 -1.61
0.895 5.739 -1.606
0.878 5.749 -1.608
0.86 5.752 -1.608
0.841 5.751 -1.607
0.823 5.754 -1.607
0.805 5.752 -1.606
0.789 5.768 -1.61
0.778 5.762 -1.608
0.76 5.764 -1.608
0.743 5.772 -1.609
0.723 5.763 -1.606
0.706 5.773 -1.608
0.689 5.785 -1.611
0.67 5.781 -1.609
0.661 5.776 -1.608
0.642 5.777 -1.607
0.628 5.809 -1.616
0.609 5.807 -1.615
0.59 5.801 -1.613
0.571 5.798 -1.611
0.552 5.792 -1.609
0.544 5.806 -1.613
0.525 5.798 -1.61
0.507 5.803 -1.611
0.49 5.817 -1.614
0.473 5.828 -1.617
0.455 5.835 -1.619
0.436 5.834 -1.618
0.426 5.827 -1.616
0.408 5.827 -1.615
0.39 5.83 -1.616
0.371 5.82 -1.613
0.353 5.826 -1.614
0.335 5.835 -1.617
0.316 5.83 -1.615
0.307 5.827 -1.614
0.289 5.834 -1.615
0.27 5.825 -1.613
0.251 5.818 -1.61
0.234 5.838 -1.616
0.215 5.827 -1.613
0.197 5.834 -1.614
0.188 5.84 -1.616
0.17 5.846 -1.618
0.151 5.835 -1.614
0.133 5.834 -1.614
0.115 5.838 -1.615
0.096 5.827 -1.611
0.078 5.84 -1.615
0.069 5.848 -1.618
0.051 5.85 -1.618
0.032 5.829 -1.612
0.014 5.829 -1.612
-0.005 5.829 -1.612
-0.023 5.826 -1.611
-0.032 5.835 -1.614
-0.05 5.839 -1.615
-0.069 5.827 -1.611
-0.087 5.84 -1.615
-0.105 5.829 -1.612
-0.124 5.836 -1.614
-0.142 5.843 -1.617
-0.152 5.852 -1.619
-0.17 5.856 -1.621
-0.188 5.836 -1.615
-0.206 5.841 -1.617
-0.225 5.858 -1.622
-0.243 5.832 -1.614
-0.261 5.835 -1.615
-0.271 5.856 -1.622
-0.289 5.841 -1.618
-0.308 5.858 -1.623
-0.328 5.872 -1.627
-0.345 5.861 -1.625
-0.364 5.857 -1.623
-0.383 5.873 -1.629
-0.391 5.847 -1.621
-0.409 5.844 -1.621
-0.428 5.858 -1.625
-0.447 5.855 -1.625
-0.465 5.846 -1.622
-0.484 5.859 -1.627
-0.503 5.86 -1.627
-0.512 5.857 -1.627
-0.53 5.852 -1.626
-0.547 5.842 -1.623
-0.566 5.842 -1.624
-0.586 5.856 -1.629
-0.604 5.856 -1.629
-0.622 5.848 -1.627
-0.63 5.83 -1.622
-0.647 5.817 -1.619
-0.666 5.826 -1.622
-0.685 5.831 -1.625
-0.704 5.831 -1.625
-0.721 5.821 -1.623
-0.741 5.829 -1.626
-0.751 5.839 -1.629
-0.771 5.844 -1.631
-0.789 5.84 -1.631
-0.807 5.833 -1.63
-0.827 5.846 -1.634
-0.844 5.832 -1.631
-0.862 5.827 -1.63
-0.873 5.841 -1.635
-0.892 5.842 -1.636
-0.906 5.813 -1.628
-0.925 5.81 -1.628
-0.945 5.82 -1.632
-0.966 5.832 -1.637
-0.986 5.841 -1.64
-0.995 5.837 -1.639
-1.013 5.836 -1.64
-1.033 5.842 -1.643
-1.052 5.839 -1.643
-1.067 5.817 -1.637
-1.086 5.817 -1.638
-1.104 5.816 -1.639
-1.112 5.808 -1.637
-1.131 5.809 -1.638
-1.15 5.805 -1.638
-1.169 5.809 -1.641
-1.187 5.803 -1.64
-1.206 5.801 -1.641
-1.222 5.79 -1.638
-1.234 5.799 -1.642
-1.252 5.797 -1.642
-1.268 5.782 -1.639
-1.284 5.765 -1.635
-1.307 5.783 -1.642
-1.323 5.77 -1.639
-1.343 5.777 -1.642
-1.358 5.799 -1.65
-1.374 5.787 -1.647
-1.39 5.77 -1.643
-1.407 5.764 -1.643
-1.429 5.776 -1.648
-1.445 5.76 -1.645
-1.461 5.746 -1.642
-1.471 5.75 -1.643
-1.489 5.745 -1.643
-1.507 5.739 -1.643
-1.523 5.728 -1.641
-1.54 5.72 -1.64
-1.562 5.73 -1.645
-1.585 5.741 -1.65
-1.592 5.733 -1.648
-1.608 5.721 -1.646
-1.623 5.705 -1.642
-1.643 5.707 -1.645
-1.662 5.707 -1.646
-1.681 5.704 -1.647
-1.7 5.702 -1.648
-1.71 5.703 -1.649
-1.727 5.696 -1.649
-1.747 5.696 -1.65
-1.764 5.689 -1.65
-1.781 5.681 -1.649
-1.801 5.681 -1.651
-1.818 5.674 -1.65
-1.825 5.665 -1.649
-1.843 5.658 -1.648
-1.863 5.661 -1.651
-1.885 5.666 -1.654
-1.904 5.664 -1.655
-1.919 5.65 -1.653
-1.938 5.648 -1.654
-1.946 5.643 -1.654
-1.962 5.632 -1.652
-1.981 5.629 -1.653
-1.995 5.612 -1.65
-2.011 5.602 -1.649
-2.032 5.605 -1.651
-2.046 5.587 -1.648
-2.057 5.59 -1.65
-2.075 5.585 -1.65
-2.094 5.582 -1.651
-2.113 5.581 -1.653
-2.125 5.558 -1.648
-2.145 5.558 -1.65
-2.166 5.562 -1.654
-2.174 5.555 -1.653
-2.191 5.549 -1.653
-2.213 5.552 -1.656
-2.229 5.544 -1.655
-2.25 5.544 -1.658
-2.274 5.553 -1.663
-2.286 5.533 -1.659
-2.292 5.522 -1.657
-2.309 5.515 -1.657
-2.327 5.51 -1.657
-2.344 5.502 -1.657
-2.37 5.514 -1.663
-2.388 5.509 -1.664
-2.403 5.496 -1.662
-2.406 5.48 -1.658
-2.425 5.476 -1.659
-2.451 5.487 -1.666
-2.465 5.472 -1.663
-2.479 5.458 -1.661
-2.496 5.45 -1.661
-2.515 5.446 -1.662
-2.526 5.447 -1.664
-2.543 5.439 -1.664
-2.562 5.434 -1.665
-2.579 5.428 -1.666
-2.6 5.427 -1.668
-2.622 5.429 -1.671
-2.62 5.404 -1.664
-2.636 5.394 -1.664
-2.657 5.393 -1.666
-2.673 5.383 -1.666
-2.689 5.372 -1.665
-2.719 5.39 -1.674
-2.731 5.373 -1.671
-2.743 5.354 -1.667
-2.762 5.37 -1.674
-2.775 5.354 -1.672
-2.793 5.347 -1.672
-2.817 5.354 -1.678
-2.83 5.336 -1.675
-2.851 5.336 -1.678
-2.873 5.337 -1.681
-2.876 5.323 -1.678
-2.895 5.317 -1.679
-2.91 5.306 -1.678
-2.921 5.285 -1.674
-2.941 5.283 -1.676
-2.951 5.262 -1.672
-2.972 5.261 -1.675
-2.977 5.249 -1.673
-2.997 5.247 -1.675
-3.008 5.227 -1.672
-3.028 5.224 -1.674
-3.056 5.235 -1.681
-3.07 5.222 -1.68
-3.067 5.197 -1.673
-3.082 5.186 -1.672
-3.096 5.171 -1.671
-3.122 5.178 -1.676
-3.139 5.17 -1.677
-3.151 5.153 -1.675
-3.172 5.151 -1.678
-3.172 5.133 -1.673
-3.191 5.127 -1.674
-3.208 5.118 -1.675
-3.229 5.116 -1.678
-3.246 5.108 -1.678
-3.264 5.101 -1.679
-3.284 5.097 -1.682
-3.293 5.093 -1.682
-3.315 5.093 -1.686
-3.328 5.077 -1.684
-3.347 5.072 -1.686
-3.364 5.063 -1.686
-3.383 5.057 -1.688
-3.395 5.04 -1.686
-3.403 5.018 -1.682
-3.425 5.033 -1.689
-3.445 5.029 -1.691
-3.452 5.006 -1.687
-3.477 5.007 -1.691
-3.484 4.984 -1.687
-3.502 4.976 -1.688
-3.537 4.993 -1.698
-3.532 4.969 -1.691
-3.55 4.962 -1.693
-3.569 4.956 -1.695
-3.583 4.941 -1.694
-3.593 4.922 -1.691
-3.61 4.914 -1.692
-3.625 4.918 -1.695
-3.635 4.899 -1.692
-3.653 4.892 -1.694
-3.676 4.89 -1.698
-3.692 4.88 -1.698
-3.707 4.868 -1.698
-3.719 4.852 -1.696
-3.734 4.855 -1.7
-3.761 4.858 -1.706
-3.785 4.859 -1.71
-3.792 4.836 -1.706
-3.8 4.815 -1.703
-3.816 4.803 -1.703
-3.826 4.785 -1.7
-3.835 4.781 -1.701
-3.859 4.781 -1.706
-3.868 4.761 -1.703
-3.887 4.753 -1.704
-3.898 4.737 -1.703
-3.923 4.736 -1.707
-3.936 4.722 -1.707
-3.947 4.721 -1.708
-3.95 4.693 -1.703
-3.972 4.69 -1.706
-3.992 4.683 -1.708
-4.011 4.676 -1.711
-4.018 4.655 -1.707
-4.031 4.64 -1.706
-4.043 4.639 -1.708
-4.054 4.622 -1.707
-4.071 4.612 -1.708
-4.094 4.609 -1.712
-4.12 4.609 -1.717
-4.122 4.582 -1.711
-4.142 4.576 -1.714
-4.169 4.591 -1.723
-4.172 4.565 -1.717
-4.186 4.552 -1.717
-4.198 4.536 -1.716
-4.218 4.53 -1.719
-4.223 4.507 -1.715
-4.252 4.509 -1.721
-4.245 4.487 -1.715
-4.284 4.5 -1.726
-4.304 4.493 -1.729
-4.303 4.463 -1.722
-4.309 4.441 -1.719
-4.345 4.451 -1.728
-4.354 4.432 -1.726
-4.367 4.432 -1.729
-4.379 4.416 -1.728
-4.388 4.398 -1.726
-4.396 4.377 -1.723
-4.426 4.38 -1.73
-4.426 4.352 -1.724
-4.432 4.332 -1.721
-4.464 4.349 -1.732
-4.482 4.339 -1.733
-4.494 4.323 -1.733
-4.514 4.316 -1.736
-4.52 4.294 -1.732
-4.527 4.274 -1.73
-4.551 4.269 -1.734
-4.552 4.257 -1.732
-4.569 4.246 -1.733
-4.583 4.232 -1.733
-4.592 4.214 -1.732
-4.613 4.207 -1.735
-4.649 4.213 -1.744
-4.653 4.203 -1.743
-4.666 4.189 -1.743
-4.678 4.173 -1.743
-4.698 4.164 -1.745
-4.718 4.156 -1.748
-4.731 4.141 -1.748
-4.737 4.12 -1.745
-4.759 4.113 -1.749
-4.777 4.115 -1.753
-4.775 4.088 -1.748
-4.798 4.081 -1.752
-4.814 4.069 -1.753
-4.824 4.051 -1.752
-4.836 4.036 -1.752
-4.841 4.027 -1.751
-4.855 4.013 -1.752
-4.875 4.004 -1.755
-4.879 3.981 -1.751
-4.892 3.966 -1.751
-4.904 3.951 -1.751
-4.918 3.936 -1.752
-4.939 3.941 -1.757
-4.951 3.925 -1.757
-4.965 3.911 -1.758
-4.974 3.893 -1.757
-4.974 3.868 -1.752
-4.978 3.845 -1.749
-5.006 3.842 -1.755
-5.008 3.831 -1.753
-5.018 3.814 -1.753
-5.056 3.818 -1.762
-5.079 3.81 -1.766
-5.098 3.8 -1.769
-5.12 3.791 -1.773
-5.125 3.77 -1.77
-5.123 3.756 -1.768
-5.146 3.748 -1.772
-5.162 3.735 -1.773
-5.179 3.722 -1.775
-5.197 3.711 -1.777
-5.222 3.704 -1.782
-5.231 3.686 -1.781
-5.229 3.672 -1.778
-5.262 3.671 -1.786
-5.275 3.655 -1.787
-5.279 3.633 -1.784
-5.284 3.612 -1.782
-5.319 3.612 -1.79
-5.34 3.602 -1.794
-5.35 3.597 -1.796
-5.355 3.575 -1.793
-5.37 3.561 -1.794
-5.382 3.545 -1.795
-5.4 3.532 -1.797
-5.398 3.507 -1.793
-5.419 3.496 -1.796
-5.437 3.496 -1.801
-5.453 3.482 -1.802
-5.461 3.463 -1.801
-5.479 3.451 -1.804
-5.495 3.437 -1.806
-5.498 3.414 -1.803
-5.51 3.398 -1.804
-5.52 3.392 -1.805
-5.541 3.381 -1.809
-5.551 3.364 -1.809
-5.565 3.348 -1.81
-5.581 3.334 -1.812
-5.589 3.315 -1.811
-5.606 3.301 -1.813
-5.623 3.299 -1.817
-5.627 3.278 -1.815
-5.655 3.271 -1.821
-5.654 3.246 -1.817
-5.664 3.228 -1.817
-5.683 3.215 -1.82
-5.679 3.19 -1.815
-5.696 3.188 -1.819
-5.694 3.163 -1.815
-5.697 3.142 -1.813
-5.712 3.126 -1.815
-5.734 3.115 -1.819
-5.739 3.094 -1.817
-5.76 3.094 -1.823
-5.765 3.073 -1.821
-5.786 3.062 -1.825
-5.81 3.051 -1.83
-5.823 3.034 -1.831
-5.846 3.023 -1.835
-5.882 3.019 -1.845
-5.892 3.012 -1.846
-5.919 3.002 -1.852
-5.949 2.994 -1.859
-5.943 2.968 -1.854
-5.954 2.95 -1.854
-5.968 2.934 -1.856
-5.979 2.916 -1.857
-5.983 2.906 -1.857
-5.975 2.879 -1.851
-5.998 2.867 -1.855
-6.007 2.848 -1.855
-6.028 2.835 -1.859
-6.004 2.8 -1.849
-6.24 2.091 -1.835
-6.232 2.066 -1.831
-6.251 2.051 -1.835
-6.283 2.04 -1.843
-6.26 2.01 -1.834
-6.278 2.005 -1.838
-6.261 1.978 -1.831
-6.274 1.961 -1.833
-6.291 1.944 -1.837
-6.294 1.923 -1.835
-6.287 1.9 -1.831
-6.303 1.894 -1.835
-6.309 1.874 -1.835
-6.313 1.854 -1.835
-6.333 1.838 -1.839
-6.33 1.816 -1.837
-6.324 1.792 -1.833
-6.337 1.775 -1.835
-6.334 1.763 -1.834
-6.333 1.741 -1.831
-6.353 1.725 -1.836
-6.354 1.704 -1.835
-6.347 1.681 -1.831
-6.374 1.667 -1.838
-6.372 1.645 -1.835
-6.373 1.634 -1.835
-6.383 1.616 -1.837
-6.383 1.594 -1.835
-6.388 1.574 -1.835
-6.398 1.556 -1.837
-6.381 1.53 -1.83
-6.391 1.511 -1.831
-6.41 1.505 -1.837
-6.402 1.482 -1.833
-6.405 1.461 -1.832
-6.421 1.444 -1.835
-6.418 1.422 -1.833
-6.42 1.401 -1.833
-6.426 1.382 -1.833
-6.421 1.37 -1.831
-6.429 1.351 -1.832
-6.443 1.332 -1.835
-6.434 1.309 -1.831
-6.438 1.289 -1.831
-6.455 1.272 -1.835
-6.453 1.25 -1.833
-6.451 1.239 -1.832
-6.461 1.22 -1.834
-6.476 1.202 -1.837
-6.467 1.179 -1.833
-6.474 1.16 -1.834
-6.474 1.139 -1.833
-6.487 1.12 -1.836
-6.481 1.108 -1.834
-6.477 1.087 -1.831
-6.486 1.067 -1.833
-6.495 1.048 -1.835
-6.495 1.027 -1.834
-6.486 1.005 -1.83
-6.499 0.996 -1.834
-6.508 0.977 -1.835
-6.507 0.956 -1.834
-6.508 0.935 -1.834
-6.511 0.914 -1.834
-6.516 0.894 -1.834
-6.525 0.875 -1.836
-6.529 0.854 -1.837
-6.543 0.835 -1.84
-6.532 0.813 -1.836
-6.539 0.803 -1.838
-6.525 0.781 -1.833
-6.544 0.762 -1.838
-6.541 0.741 -1.836
-6.538 0.72 -1.834
-6.547 0.7 -1.837
-6.553 0.68 -1.838
-6.551 0.669 -1.837
-6.56 0.65 -1.839
-6.547 0.627 -1.834
-6.572 0.609 -1.841
-6.555 0.587 -1.835
-6.566 0.567 -1.838
-6.562 0.546 -1.837
-6.578 0.537 -1.841
-6.567 0.515 -1.837
-6.559 0.494 -1.834
-6.56 0.473 -1.834
-6.573 0.453 -1.838
-6.567 0.432 -1.835
-6.569 0.422 -1.836
-6.576 0.402 -1.838
-6.585 0.381 -1.84
-6.575 0.36 -1.837
-6.591 0.34 -1.841
-6.577 0.319 -1.837
-6.582 0.298 -1.838
-6.584 0.288 -1.838
-6.583 0.267 -1.838
-6.594 0.247 -1.841
-6.594 0.226 -1.841
-6.593 0.205 -1.84
-6.592 0.185 -1.839
-6.585 0.164 -1.837
-6.587 0.153 -1.838
-6.603 0.133 -1.842
-6.586 0.112 -1.837
-6.592 0.091 -1.839
-6.594 0.071 -1.839
-6.59 0.05 -1.838
-6.585 0.029 -1.837
-6.594 0.019 -1.839
-6.585 -0.002 -1.837
-6.591 -0.022 -1.838
-6.587 -0.043 -1.837
-6.592 -0.064 -1.839
-6.588 -0.085 -1.838
-6.601 -0.105 -1.842
-6.607 -0.116 -1.843
-6.601 -0.137 -1.842
-6.596 -0.157 -1.841
-6.605 -0.178 -1.843
-6.588 -0.198 -1.838
-6.598 -0.219 -1.842
-6.611 -0.241 -1.846
-6.603 -0.251 -1.843
-6.596 -0.271 -1.842
-6.605 -0.292 -1.845
-6.587 -0.312 -1.839
-6.594 -0.333 -1.842
-6.608 -0.355 -1.846
-6.6 -0.365 -1.844
-6.598 -0.386 -1.844
-6.588 -0.406 -1.841
-6.594 -0.427 -1.843
-6.591 -0.448 -1.843
-6.606 -0.469 -1.848
-6.592 -0.489 -1.844
-6.587 -0.499 -1.843
-6.61 -0.522 -1.85
-6.603 -0.542 -1.849
-6.599 -0.563 -1.848
-6.607 -0.584 -1.851
-6.597 -0.604 -1.849
-6.594 -0.625 -1.848
-6.602 -0.636 -1.851
-6.598 -0.657 -1.85
-6.59 -0.677 -1.849
-6.605 -0.699 -1.854
-6.586 -0.718 -1.849
-6.588 -0.739 -1.85
-6.589 -0.76 -1.851
-6.578 -0.77 -1.848
-6.58 -0.791 -1.849
-6.59 -0.813 -1.853
-6.573 -0.832 -1.849
-6.581 -0.854 -1.852
-6.581 -0.875 -1.853
-6.568 -0.894 -1.85
-6.571 -0.905 -1.851
-6.57 -0.926 -1.851
-6.563 -0.946 -1.85
-6.556 -0.966 -1.849
-6.578 -0.99 -1.857
-6.559 -1.009 -1.852
-6.556 -1.029 -1.852
-6.556 -1.04 -1.853
-6.546 -1.059 -1.85
-6.556 -1.082 -1.854
-6.56 -1.104 -1.857
-6.547 -1.123 -1.854
-6.545 -1.144 -1.854
-6.547 -1.155 -1.855
-6.541 -1.175 -1.855
-6.543 -1.197 -1.857
-6.532 -1.216 -1.854
-6.53 -1.237 -1.855
-6.532 -1.258 -1.857
-6.524 -1.278 -1.855
-6.518 -1.298 -1.855
-6.539 -1.313 -1.862
-6.527 -1.332 -1.859
-6.527 -1.353 -1.861
-6.511 -1.371 -1.857
-6.516 -1.394 -1.86
-6.508 -1.413 -1.859
-6.509 -1.435 -1.861
-6.507 -1.445 -1.861
-6.493 -1.464 -1.858
-6.509 -1.489 -1.864
-6.489 -1.506 -1.859
-6.482 -1.526 -1.859
-6.485 -1.548 -1.861
-6.505 -1.563 -1.868
-6.487 -1.58 -1.864
-6.476 -1.599 -1.862
-6.481 -1.622 -1.865
-6.468 -1.641 -1.863
-6.469 -1.662 -1.864
-6.461 -1.682 -1.864
-6.453 -1.691 -1.862
-6.459 -1.714 -1.866
-6.455 -1.735 -1.866
-6.45 -1.755 -1.866
-6.456 -1.778 -1.87
-6.435 -1.795 -1.865
-6.437 -1.817 -1.867
-6.425 -1.824 -1.864
-6.419 -1.845 -1.864
-6.402 -1.862 -1.861
-6.409 -1.885 -1.865
-6.422 -1.911 -1.871
-6.434 -1.937 -1.876
-6.245 -2.576 -1.887
-6.228 -2.592 -1.884
-6.218 -2.6 -1.883
-6.224 -2.625 -1.887
-6.223 -2.648 -1.89
-6.215 -2.667 -1.89
-6.206 -2.687 -1.89
-6.193 -2.704 -1.888
-6.186 -2.724 -1.888
-6.194 -2.739 -1.892
-6.173 -2.754 -1.888
-6.168 -2.774 -1.89
-6.184 -2.805 -1.898
-6.173 -2.823 -1.897
-6.166 -2.844 -1.898
-6.15 -2.86 -1.895
-6.152 -2.873 -1.898
-6.14 -2.89 -1.896
-6.132 -2.91 -1.897
-6.125 -2.93 -1.898
-6.117 -2.951 -1.898
-6.105 -2.968 -1.897
-6.102 -2.991 -1.899
-6.098 -3 -1.899
-6.092 -3.021 -1.9
-6.079 -3.038 -1.899
-6.066 -3.056 -1.898
-6.065 -3.079 -1.901
-6.055 -3.098 -1.901
-6.047 -3.118 -1.902
-6.038 -3.126 -1.9
-6.03 -3.146 -1.901
-6.025 -3.167 -1.903
-6.009 -3.183 -1.9
-5.997 -3.201 -1.9
-5.987 -3.219 -1.9
-5.985 -3.231 -1.901
-5.975 -3.249 -1.901
-5.973 -3.273 -1.904
-5.958 -3.289 -1.902
-5.951 -3.309 -1.903
-5.935 -3.325 -1.902
-5.937 -3.35 -1.906
-5.928 -3.358 -1.904
-5.917 -3.376 -1.904
-5.91 -3.397 -1.906
-5.901 -3.416 -1.906
-5.894 -3.437 -1.907
-5.876 -3.451 -1.905
-5.882 -3.48 -1.911
-5.875 -3.488 -1.91
-5.867 -3.508 -1.911
-5.856 -3.527 -1.911
-5.853 -3.55 -1.914
-5.844 -3.569 -1.915
-5.844 -3.595 -1.919
-5.826 -3.609 -1.916
-5.815 -3.615 -1.915
-5.817 -3.641 -1.919
-5.804 -3.659 -1.919
-5.791 -3.676 -1.918
-5.794 -3.703 -1.923
-5.782 -3.721 -1.923
-5.775 -3.743 -1.925
-5.776 -3.756 -1.927
-5.766 -3.775 -1.928
-5.75 -3.791 -1.927
-5.753 -3.819 -1.932
-5.735 -3.832 -1.929
-5.714 -3.845 -1.927
-5.736 -3.872 -1.936
-5.698 -3.873 -1.927
-5.684 -3.89 -1.927
-5.67 -3.907 -1.926
-5.647 -3.917 -1.922
-5.62 -3.925 -1.917
-5.581 -3.924 -1.907
-5.552 -3.916 -1.899
-5.533 -3.929 -1.896
-5.514 -3.942 -1.894
-5.488 -3.949 -1.889
-5.458 -3.954 -1.883
-5.444 -3.97 -1.882
-5.416 -3.976 -1.876
-5.39 -3.97 -1.869
-5.379 -3.988 -1.87
-3.194 -2.396 -1.066
-3.149 -2.379 -1.052
-3.119 -2.372 -1.044
-3.085 -2.362 -1.034
-3.055 -2.354 -1.026
-3.017 -2.347 -1.015
-2.929 -2.325 -0.991
-2.921 -2.333 -0.99
-2.913 -2.342 -0.99
-2.882 -2.325 -0.98
-2.874 -2.333 -0.98
-2.4 -2.302 -0.868
-2.326 -2.295 -0.851
-2.206 -2.312 -0.829
-2.2 -2.32 -0.83
-1.091 -3.549 -0.983
-1.068 -3.552 -0.982
-1.019 -3.616 -0.996
-1.003 -3.603 -0.991
-0.993 -3.608 -0.992
-0.985 -3.626 -0.996
0.262 -6.077 -1.687
0.281 -6.089 -1.691
0.297 -6.006 -1.667
0.309 -6.077 -1.688
0.33 -6.104 -1.696
0.349 -6.101 -1.696
0.366 -6.071 -1.687
0.388 -6.114 -1.7
0.406 -6.096 -1.695
0.414 -6.068 -1.687
0.431 -6.031 -1.676
0.453 -6.071 -1.689
0.468 -6.024 -1.675
0.493 -6.101 -1.699
0.509 -6.055 -1.686
0.523 -5.998 -1.669
0.537 -6.047 -1.684
0.559 -6.076 -1.693
0.577 -6.065 -1.69
0.598 -6.082 -1.696
0.608 -5.985 -1.667
0.622 -5.937 -1.654
0.643 -5.962 -1.662
0.65 -5.934 -1.654
0.667 -5.92 -1.65
0.686 -5.924 -1.652
0.703 -5.907 -1.647
0.731 -5.986 -1.672
0.757 -6.043 -1.69
0.772 -6.002 -1.678
0.774 -5.948 -1.662
0.806 -6.044 -1.692
0.827 -6.059 -1.697
0.841 -6.016 -1.685
0.857 -5.997 -1.68
0.88 -6.024 -1.689
0.889 -6.015 -1.687
0.915 -6.062 -1.702
0.923 -5.985 -1.679
0.936 -5.948 -1.669
0.974 -6.064 -1.705
0.996 -6.082 -1.711
1.014 -6.069 -1.708
1.024 -6.072 -1.71
1.038 -6.038 -1.7
1.053 -6.012 -1.694
1.08 -6.054 -1.707
1.103 -6.075 -1.715
1.121 -6.064 -1.712
1.139 -6.057 -1.711
1.149 -6.057 -1.712
1.162 -6.023 -1.703
1.177 -5.995 -1.695
1.203 -6.031 -1.707
1.225 -6.042 -1.712
1.234 -5.989 -1.697
1.237 -5.908 -1.674
1.244 -5.893 -1.67
1.264 -5.899 -1.672
1.281 -5.887 -1.67
1.299 -5.881 -1.67
1.32 -5.887 -1.672
1.337 -5.875 -1.67
1.346 -5.875 -1.671
1.363 -5.863 -1.668
1.385 -5.874 -1.673
1.401 -5.862 -1.671
1.425 -5.88 -1.678
1.441 -5.864 -1.674
1.461 -5.867 -1.676
1.465 -5.844 -1.67
1.492 -5.873 -1.68
1.506 -5.85 -1.675
1.524 -5.845 -1.675
1.546 -5.853 -1.679
1.563 -5.843 -1.677
1.584 -5.849 -1.68
1.597 -5.861 -1.685
1.621 -5.875 -1.691
1.64 -5.871 -1.691
1.659 -5.87 -1.692
1.685 -5.892 -1.701
1.701 -5.876 -1.698
1.716 -5.893 -1.704
2.63 -5.582 -1.713
2.643 -5.563 -1.71
2.66 -5.553 -1.71
2.684 -5.559 -1.714
2.701 -5.55 -1.714
2.728 -5.561 -1.72
2.733 -5.526 -1.712
2.746 -5.532 -1.715
2.77 -5.536 -1.719
2.78 -5.513 -1.715
2.799 -5.508 -1.716
2.817 -5.501 -1.716
2.834 -5.49 -1.716
2.861 -5.5 -1.722
2.868 -5.494 -1.721
2.881 -5.476 -1.719
2.898 -5.467 -1.719
2.916 -5.458 -1.719
2.931 -5.445 -1.717
2.951 -5.441 -1.719
2.963 -5.443 -1.721
2.973 -5.421 -1.717
2.993 -5.418 -1.719
3.009 -5.407 -1.719
3.025 -5.394 -1.717
3.041 -5.385 -1.717
3.067 -5.39 -1.723
3.067 -5.37 -1.717
3.093 -5.377 -1.723
3.107 -5.362 -1.721
3.121 -5.348 -1.72
3.138 -5.338 -1.72
3.16 -5.336 -1.723
3.172 -5.32 -1.72
3.187 -5.325 -1.724
3.208 -5.323 -1.727
3.221 -5.306 -1.724
3.244 -5.306 -1.728
3.256 -5.289 -1.725
3.272 -5.277 -1.725
3.279 -5.27 -1.724
3.296 -5.26 -1.724
3.318 -5.259 -1.728
3.331 -5.242 -1.725
3.346 -5.23 -1.725
3.365 -5.223 -1.726
3.383 -5.216 -1.727
3.388 -5.205 -1.725
3.408 -5.2 -1.727
3.424 -5.189 -1.727
3.433 -5.167 -1.723
3.449 -5.156 -1.723
3.468 -5.15 -1.725
3.482 -5.136 -1.724
3.489 -5.129 -1.723
3.503 -5.115 -1.722
3.525 -5.112 -1.725
3.54 -5.099 -1.724
3.551 -5.081 -1.722
3.568 -5.072 -1.723
3.575 -5.065 -1.722
3.59 -5.052 -1.721
3.607 -5.042 -1.722
3.623 -5.031 -1.722
3.641 -5.022 -1.723
3.651 -5.003 -1.72
3.67 -4.996 -1.722
3.671 -4.981 -1.719
3.689 -4.973 -1.72
3.708 -4.966 -1.721
3.719 -4.948 -1.719
3.733 -4.935 -1.719
3.748 -4.921 -1.718
3.764 -4.911 -1.719
3.774 -4.908 -1.72
3.785 -4.89 -1.717
3.802 -4.88 -1.718
3.815 -4.865 -1.717
3.829 -4.851 -1.716
3.848 -4.844 -1.718
3.858 -4.826 -1.716
3.867 -4.821 -1.716
3.885 -4.814 -1.718
3.893 -4.792 -1.715
3.908 -4.78 -1.715
3.927 -4.772 -1.716
3.94 -4.757 -1.715
3.945 -4.748 -1.714
3.961 -4.737 -1.715
3.972 -4.72 -1.713
3.993 -4.715 -1.716
4.008 -4.702 -1.716
4.024 -4.691 -1.716
4.031 -4.67 -1.713
4.041 -4.666 -1.714
4.054 -4.652 -1.713
4.065 -4.635 -1.712
4.092 -4.637 -1.717
4.1 -4.617 -1.715
4.117 -4.607 -1.716
4.125 -4.586 -1.713
4.134 -4.581 -1.713
4.144 -4.564 -1.712
4.163 -4.555 -1.713
4.178 -4.544 -1.714
4.187 -4.525 -1.712
4.204 -4.514 -1.713
4.214 -4.511 -1.714
4.221 -4.49 -1.711
4.237 -4.478 -1.712
4.256 -4.471 -1.714
4.265 -4.452 -1.712
4.279 -4.438 -1.712
4.295 -4.428 -1.713
4.296 -4.414 -1.71
4.311 -4.402 -1.711
4.329 -4.392 -1.712
4.338 -4.375 -1.711
4.356 -4.365 -1.712
4.373 -4.354 -1.713
4.374 -4.328 -1.708
4.382 -4.323 -1.709
4.408 -4.321 -1.714
4.411 -4.296 -1.71
4.427 -4.285 -1.711
4.447 -4.278 -1.713
4.458 -4.261 -1.712
4.467 -4.243 -1.711
4.479 -4.242 -1.713
4.488 -4.224 -1.711
4.506 -4.213 -1.713
4.518 -4.198 -1.712
4.528 -4.181 -1.711
4.542 -4.168 -1.712
4.548 -4.16 -1.711
4.563 -4.148 -1.712
4.572 -4.13 -1.711
4.585 -4.115 -1.711
4.604 -4.106 -1.713
4.621 -4.095 -1.715
4.629 -4.077 -1.713
4.636 -4.07 -1.713
4.65 -4.056 -1.713
4.666 -4.044 -1.715
4.677 -4.028 -1.714
4.694 -4.017 -1.716
4.72 -4.014 -1.721
4.729 -3.997 -1.72
4.741 -3.994 -1.722
4.752 -3.978 -1.721
4.765 -3.963 -1.721
4.776 -3.947 -1.721
4.796 -3.938 -1.724
4.798 -3.914 -1.72
4.816 -3.904 -1.722
4.838 -3.91 -1.728
4.855 -3.898 -1.73
4.881 -3.894 -1.735
4.915 -3.896 -1.744
4.943 -3.893 -1.749
4.968 -3.888 -1.755
4.988 -3.891 -1.76
5.008 -3.881 -1.762
5.046 -3.885 -1.772
5.067 -3.876 -1.776
5.096 -3.873 -1.782
5.111 -3.86 -1.783
5.131 -3.849 -1.786
5.155 -3.855 -1.793
5.17 -3.841 -1.794
5.181 -3.824 -1.793
5.21 -3.82 -1.8
5.223 -3.805 -1.8
5.243 -3.794 -1.803
5.255 -3.777 -1.803
5.265 -3.773 -1.805
5.288 -3.764 -1.809
5.291 -3.741 -1.805
5.302 -3.724 -1.805
5.306 -3.702 -1.802
5.318 -3.685 -1.802
5.316 -3.671 -1.8
5.318 -3.648 -1.796
5.318 -3.624 -1.792
5.331 -3.608 -1.793
5.334 -3.586 -1.79
5.338 -3.564 -1.787
5.336 -3.538 -1.782
5.346 -3.533 -1.784
5.362 -3.52 -1.786
5.372 -3.502 -1.785
5.373 -3.478 -1.782
5.382 -3.46 -1.781
5.393 -3.444 -1.781
5.399 -3.423 -1.78
5.406 -3.416 -1.78
5.41 -3.395 -1.778
5.418 -3.376 -1.777
5.432 -3.361 -1.778
5.431 -3.337 -1.774
5.441 -3.32 -1.774
5.452 -3.303 -1.774
5.455 -3.293 -1.773
5.461 -3.273 -1.772
5.464 -3.252 -1.769
5.474 -3.235 -1.769
5.485 -3.217 -1.769
5.5 -3.203 -1.771
5.495 -3.189 -1.768
5.493 -3.165 -1.764
5.498 -3.144 -1.762
5.51 -3.128 -1.762
5.506 -3.103 -1.758
5.521 -3.089 -1.76
5.545 -3.08 -1.765
5.54 -3.065 -1.761
5.526 -3.035 -1.753
5.536 -3.018 -1.753
5.562 -3.009 -1.759
5.573 -2.993 -1.76
5.578 -2.973 -1.758
5.594 -2.959 -1.76
5.588 -2.944 -1.757
5.579 -2.917 -1.751
5.596 -2.904 -1.753
5.605 -2.886 -1.753
5.603 -2.863 -1.749
5.627 -2.853 -1.755
5.613 -2.834 -1.748
5.611 -2.812 -1.745
5.637 -2.802 -1.751
5.624 -2.774 -1.743
5.636 -2.758 -1.744
5.65 -2.742 -1.746
5.646 -2.719 -1.742
5.65 -2.71 -1.742
5.681 -2.703 -1.749
5.667 -2.674 -1.742
5.672 -2.655 -1.741
5.686 -2.64 -1.743
5.692 -2.621 -1.742
5.697 -2.601 -1.741
5.703 -2.593 -1.741
5.7 -2.571 -1.738
5.698 -2.548 -1.735
5.72 -2.536 -1.739
5.714 -2.512 -1.735
5.722 -2.494 -1.735
5.737 -2.479 -1.737
5.719 -2.461 -1.73
5.731 -2.444 -1.731
5.745 -2.429 -1.733
5.739 -2.405 -1.729
5.752 -2.39 -1.731
5.759 -2.372 -1.731
5.747 -2.356 -1.725
5.761 -2.341 -1.728
5.763 -2.32 -1.726
5.776 -2.304 -1.728
5.774 -2.283 -1.725
5.781 -2.265 -1.725
5.779 -2.243 -1.722
5.779 -2.232 -1.721
5.788 -2.215 -1.721
5.783 -2.192 -1.717
5.786 -2.172 -1.716
5.802 -2.158 -1.719
5.796 -2.135 -1.715
5.806 -2.118 -1.716
5.802 -2.106 -1.714
5.803 -2.086 -1.712
5.805 -2.066 -1.711
5.818 -2.05 -1.713
5.821 -2.03 -1.712
5.822 -2.01 -1.71
5.823 -1.99 -1.708
5.819 -1.978 -1.706
5.819 -1.958 -1.704
5.836 -1.944 -1.708
5.833 -1.922 -1.705
5.838 -1.903 -1.704
5.845 -1.886 -1.705
5.857 -1.869 -1.707
5.83 -1.85 -1.698
5.849 -1.836 -1.702
5.849 -1.816 -1.7
5.859 -1.799 -1.701
5.87 -1.782 -1.703
5.862 -1.76 -1.699
5.858 -1.748 -1.696
5.873 -1.733 -1.699
5.863 -1.71 -1.695
5.87 -1.692 -1.695
5.879 -1.674 -1.696
5.866 -1.651 -1.691
5.884 -1.636 -1.695
5.887 -1.627 -1.695
5.892 -1.608 -1.695
5.89 -1.588 -1.692
5.896 -1.57 -1.693
5.898 -1.55 -1.692
5.902 -1.532 -1.692
5.907 -1.523 -1.692
5.898 -1.501 -1.688
5.912 -1.485 -1.691
5.913 -1.465 -1.69
5.92 -1.447 -1.691
5.926 -1.429 -1.691
5.929 -1.41 -1.691
5.931 -1.401 -1.691
5.932 -1.381 -1.69
5.936 -1.362 -1.69
5.931 -1.342 -1.687
5.941 -1.324 -1.688
5.935 -1.303 -1.686
5.949 -1.287 -1.688
5.943 -1.276 -1.686
5.94 -1.256 -1.684
5.946 -1.237 -1.684
5.931 -1.215 -1.679
5.957 -1.201 -1.686
5.951 -1.18 -1.683
5.951 -1.161 -1.682
5.959 -1.152 -1.683
5.96 -1.133 -1.683
5.968 -1.115 -1.684
5.966 -1.095 -1.682
5.96 -1.075 -1.679
5.97 -1.058 -1.682
5.97 -1.048 -1.681
5.975 -1.029 -1.682
5.98 -1.011 -1.682
5.97 -0.99 -1.678
5.972 -0.971 -1.678
5.984 -0.954 -1.68
5.987 -0.935 -1.68
5.985 -0.925 -1.679
5.988 -0.906 -1.679
5.979 -0.885 -1.676
5.995 -0.869 -1.68
5.992 -0.849 -1.678
5.998 -0.831 -1.679
5.995 -0.811 -1.678
5.985 -0.8 -1.674
6.009 -0.784 -1.68
6.019 -0.766 -1.683
6.013 -0.746 -1.68
6.004 -0.726 -1.677
6.01 -0.708 -1.678
6.022 -0.69 -1.681
6.012 -0.679 -1.678
6.016 -0.66 -1.678
6.016 -0.641 -1.678
6.014 -0.622 -1.676
6.037 -0.605 -1.683
6.025 -0.585 -1.679
6.02 -0.565 -1.676
6.041 -0.558 -1.683
6.032 -0.538 -1.679
6.028 -0.518 -1.678
6.031 -0.5 -1.678
6.031 -0.48 -1.678
6.032 -0.461 -1.678
6.022 -0.451 -1.674
6.034 -0.433 -1.678
6.04 -0.414 -1.679
6.022 -0.394 -1.673
6.036 -0.376 -1.677
6.026 -0.356 -1.674
6.017 -0.337 -1.671
6.031 -0.328 -1.675
6.025 -0.309 -1.672
6.022 -0.29 -1.671
6.027 -0.271 -1.672
6.029 -0.252 -1.673
6.022 -0.233 -1.671
6.019 -0.214 -1.67
6.023 -0.204 -1.671
6.018 -0.185 -1.669
6.025 -0.167 -1.671
6.014 -0.147 -1.667
6.014 -0.128 -1.667
6.016 -0.11 -1.668
6.017 -0.091 -1.668
6.003 -0.081 -1.664
6.025 -0.062 -1.67
6.002 -0.043 -1.663
6.023 -0.025 -1.67
6.006 -0.006 -1.664
5.815 0.013 -1.678
5.821 0.032 -1.68
5.821 0.05 -1.68
5.811 0.068 -1.677
5.818 0.077 -1.679
5.82 0.096 -1.68
5.814 0.114 -1.678
5.819 0.132 -1.68
5.817 0.151 -1.679
5.807 0.168 -1.676
5.81 0.187 -1.678
5.819 0.196 -1.681
5.807 0.214 -1.677
5.818 0.233 -1.681
5.804 0.251 -1.676
5.824 0.27 -1.683
5.796 0.287 -1.675
5.815 0.306 -1.681
5.812 0.315 -1.68
5.821 0.334 -1.683
5.795 0.351 -1.675
5.811 0.37 -1.681
5.783 0.386 -1.672
5.807 0.406 -1.68
5.798 0.424 -1.678
5.81 0.434 -1.682
5.792 0.451 -1.676
5.809 0.471 -1.682
5.793 0.488 -1.678
5.81 0.508 -1.684
5.791 0.524 -1.678
5.796 0.534 -1.68
5.796 0.552 -1.681
5.789 0.57 -1.679
5.798 0.589 -1.682
5.789 0.607 -1.68
5.812 0.628 -1.688
5.781 0.643 -1.679
5.797 0.654 -1.684
5.788 0.671 -1.682
5.784 0.689 -1.681
5.781 0.707 -1.681
5.792 0.727 -1.685
5.773 0.743 -1.68
5.784 0.763 -1.684
5.781 0.772 -1.684
5.771 0.789 -1.681
5.765 0.806 -1.68
5.779 0.827 -1.685
5.769 0.844 -1.683
5.774 0.863 -1.685
5.769 0.881 -1.685
5.775 0.891 -1.687
5.757 0.907 -1.682
5.775 0.929 -1.689
5.753 0.943 -1.683
5.762 0.963 -1.687
5.753 0.981 -1.685
5.761 1.001 -1.688
5.746 1.007 -1.684
5.745 1.026 -1.685
5.753 1.046 -1.688
5.737 1.061 -1.684
5.746 1.082 -1.688
5.736 1.099 -1.686
5.736 1.108 -1.687
5.745 1.129 -1.691
5.725 1.143 -1.685
5.723 1.162 -1.686
5.731 1.182 -1.689
5.718 1.198 -1.687
5.727 1.219 -1.691
5.716 1.226 -1.688
5.742 1.25 -1.697
5.732 1.267 -1.695
5.693 1.277 -1.684
5.692 1.296 -1.685
5.69 1.314 -1.686
5.699 1.335 -1.69
5.717 1.349 -1.697
5.702 1.364 -1.693
5.711 1.385 -1.697
5.697 1.401 -1.694
5.692 1.419 -1.694
5.692 1.438 -1.695
5.672 1.452 -1.691
5.692 1.466 -1.698
5.675 1.481 -1.694
5.683 1.502 -1.698
5.66 1.515 -1.692
5.662 1.535 -1.694
5.654 1.551 -1.693
5.649 1.569 -1.693
5.652 1.58 -1.695
5.656 1.6 -1.698
5.636 1.613 -1.693
5.637 1.633 -1.695
5.632 1.65 -1.695
5.63 1.669 -1.696
5.633 1.68 -1.698
5.62 1.695 -1.695
5.613 1.712 -1.695
5.628 1.736 -1.701
5.608 1.749 -1.697
5.613 1.77 -1.7
5.604 1.787 -1.699
5.61 1.799 -1.702
5.604 1.816 -1.702
5.601 1.834 -1.703
5.582 1.848 -1.698
5.593 1.871 -1.704
5.578 1.885 -1.701
5.573 1.903 -1.701
5.569 1.911 -1.701
5.577 1.934 -1.705
5.56 1.948 -1.702
5.57 1.971 -1.707
5.544 1.981 -1.701
5.536 1.998 -1.7
5.528 2.015 -1.7
5.537 2.028 -1.704
5.54 2.049 -1.707
5.519 2.061 -1.702
5.541 2.089 -1.711
5.511 2.098 -1.704
5.516 2.119 -1.707
5.505 2.135 -1.706
5.513 2.148 -1.71
5.485 2.157 -1.703
5.501 2.183 -1.71
5.48 2.195 -1.705
5.489 2.218 -1.711
5.464 2.228 -1.705
5.459 2.236 -1.704
5.459 2.256 -1.707
5.457 2.276 -1.708
5.445 2.29 -1.707
5.448 2.312 -1.71
5.441 2.329 -1.71
5.431 2.346 -1.71
5.423 2.352 -1.708
5.422 2.372 -1.71
5.411 2.387 -1.709
5.407 2.406 -1.71
5.396 2.421 -1.709
5.392 2.44 -1.71
5.397 2.452 -1.713
5.392 2.471 -1.714
5.376 2.484 -1.711
5.38 2.506 -1.716
5.369 2.522 -1.714
5.376 2.546 -1.72
5.367 2.562 -1.719
5.354 2.566 -1.716
5.351 2.585 -1.718
5.343 2.602 -1.718
