ply
format ascii 1.0
comment Created by Open3D
element vertex 2402
property double x
property double y
property double z
end_header
-18.646 -10.6 0.798
-18.399 -10.536 0.791
-18.685 -10.778 0.801
-18.414 -10.699 0.794
-19.053 -11.23 0.816
-16.47 -9.816 0.735
-16.664 -10.002 0.743
-16.483 -9.965 0.738
-16.536 -10.067 0.741
-16.743 -10.265 0.748
-21.467 -13.246 0.902
-21.679 -13.471 0.91
-15.786 -9.852 0.72
-15.751 -9.899 0.72
-16.078 -10.175 0.731
-15.663 -9.982 0.719
-15.916 -10.213 0.728
-15.637 -10.104 0.72
-15.548 -10.116 0.718
-15.417 -10.065 0.715
-15.318 -10.069 0.712
-15.272 -10.108 0.712
-15.298 -10.194 0.714
-15.243 -10.227 0.713
-15.011 -10.141 0.706
-9.312 -6.345 0.518
-14.952 -10.203 0.706
-14.887 -10.228 0.705
-14.624 -10.115 0.697
-19.509 -13.575 0.862
-14.659 -10.276 0.701
-19.017 -13.411 0.848
-19.702 -13.986 0.873
-9.152 -6.536 0.518
-9.133 -6.565 0.518
-9.106 -6.589 0.517
-9.066 -6.604 0.517
-9.052 -6.637 0.517
-9.029 -6.664 0.517
-18.433 -13.661 0.839
-9.696 -7.225 0.541
-9.625 -7.219 0.539
-8.949 -6.758 0.517
-9.074 -6.897 0.522
-8.779 -6.718 0.512
-8.747 -6.737 0.512
-8.963 -6.947 0.52
-8.726 -6.786 0.512
-8.72 -6.826 0.513
-8.784 -6.92 0.516
-9.026 -7.156 0.525
-8.947 -7.139 0.523
-9.338 -7.498 0.538
-9.174 -7.39 0.532
-9.048 -7.336 0.529
-8.738 -7.131 0.519
-8.743 -7.181 0.52
-8.618 -7.125 0.516
-8.619 -7.171 0.517
-8.761 -7.335 0.523
-8.986 -7.546 0.531
-8.696 -7.351 0.521
-8.817 -7.501 0.527
-8.916 -7.632 0.531
-8.409 -7.246 0.514
-8.89 -7.707 0.532
-17.803 -15.498 0.857
-17.671 -15.481 0.854
-17.636 -15.5 0.854
-17.687 -15.643 0.857
-17.581 -15.648 0.855
-18.054 -16.17 0.875
-17.94 -16.17 0.872
-8.649 -7.888 0.53
-8.641 -7.93 0.531
-8.321 -7.687 0.52
-8.341 -7.753 0.522
-8.342 -7.803 0.522
-8.263 -7.778 0.52
-8.212 -7.78 0.519
-7.799 -7.413 0.504
-16.586 -15.824 0.839
-16.57 -15.908 0.84
-7.826 -7.579 0.508
-16.768 -16.404 0.853
-16.825 -16.563 0.857
-16.931 -16.72 0.862
-12.209 -12.143 0.682
-16.181 -16.182 0.837
-11.879 -11.965 0.672
-12.007 -12.17 0.678
-12.172 -12.414 0.686
-11.32 -11.656 0.655
-11.297 -11.706 0.656
-11.349 -11.834 0.659
-11.18 -11.732 0.654
-11.361 -11.996 0.663
-10.807 -11.485 0.642
-11.604 -12.407 0.675
-11.639 -12.484 0.678
-11.61 -12.53 0.678
-11.481 -12.47 0.674
-8.746 -9.569 0.565
-8.609 -9.48 0.56
-11.642 -12.886 0.686
-11.534 -12.848 0.683
-11.327 -12.658 0.675
-11.314 -12.723 0.676
-8.238 -9.334 0.551
-8.236 -9.39 0.552
-7.375 -8.466 0.517
-7.381 -8.527 0.519
-7.492 -8.709 0.524
-7.447 -8.685 0.523
-7.409 -8.696 0.523
-7.344 -8.675 0.521
-7.268 -8.64 0.519
-7.124 -8.523 0.514
-6.991 -8.418 0.509
-6.368 -7.721 0.484
-7.497 -9.112 0.533
-7.541 -9.224 0.536
-6.934 -8.54 0.511
-6.216 -7.709 0.481
-7.452 -9.293 0.536
-7.313 -9.179 0.531
-7.312 -9.236 0.532
-6.161 -7.814 0.482
-6.119 -7.811 0.481
-6.007 -7.719 0.477
-6.001 -7.761 0.478
-6.393 -8.32 0.497
-6.372 -8.346 0.497
-6.274 -8.272 0.494
-5.944 -7.865 0.48
-6.244 -8.313 0.494
-6.22 -8.336 0.494
-6.292 -8.487 0.499
-6.233 -8.463 0.497
-6.198 -8.471 0.497
-6.199 -8.5 0.498
-6.084 -8.399 0.494
-7.179 -9.968 0.546
-7.112 -9.942 0.545
-7.038 -9.904 0.542
-7.01 -9.931 0.543
-6.988 -9.966 0.543
-7.003 -10.019 0.545
-5.368 -7.742 0.467
-5.299 -7.695 0.465
-5.214 -7.623 0.462
-5.223 -7.688 0.464
-5.194 -7.696 0.464
-5.139 -7.668 0.462
-5.123 -7.669 0.462
-5.093 -7.677 0.462
-5.039 -7.648 0.46
-5.736 -8.759 0.496
-4.96 -7.633 0.459
-5.196 -8.047 0.472
-5.069 -7.907 0.467
-9.539 -14.888 0.694
-5.044 -7.95 0.467
-5.137 -8.151 0.473
-4.867 -7.78 0.461
-4.843 -7.795 0.461
-4.839 -7.844 0.462
-4.772 -7.79 0.46
-4.615 -7.562 0.452
-4.639 -7.655 0.455
-4.762 -7.912 0.462
-4.676 -7.826 0.459
-4.713 -7.944 0.462
-4.626 -7.854 0.459
-4.58 -7.832 0.458
-4.572 -7.846 0.458
-4.548 -7.862 0.458
-4.535 -7.897 0.459
-4.529 -7.943 0.46
-4.507 -7.962 0.46
-4.497 -8.004 0.461
-4.522 -8.107 0.464
-4.516 -8.126 0.464
-4.505 -8.167 0.465
-7.637 -14.014 0.647
-4.98 -9.226 0.497
-14.284 -26.558 1.037
-14.068 -26.256 1.027
-13.624 -25.622 1.006
-12.161 -23.051 0.925
-12.448 -23.774 0.946
-13.351 -25.689 1.004
-13.188 -25.573 0.999
-9.21 -18.015 0.765
-8.837 -17.355 0.744
-9.018 -17.846 0.758
-8.905 -17.762 0.755
-9.784 -19.662 0.812
-9.755 -19.759 0.814
-9.787 -19.982 0.82
-9.712 -19.987 0.819
-9.666 -19.972 0.818
-5.956 -12.43 0.587
-5.925 -12.465 0.588
-5.957 -12.633 0.592
-5.89 -12.594 0.591
-6.023 -12.982 0.602
-5.88 -12.834 0.597
-7.968 -17.512 0.737
-7.839 -17.375 0.732
-7.548 -16.872 0.717
-7.519 -16.951 0.718
-7.461 -16.963 0.718
-7.482 -17.157 0.723
-7.578 -17.451 0.731
-7.577 -17.597 0.735
-5.042 -11.834 0.562
-3.566 -8.462 0.461
-6.62 -15.79 0.679
-6.571 -15.813 0.679
-6.544 -15.818 0.679
-3.454 -8.457 0.46
-4.745 -11.696 0.555
-4.73 -11.764 0.557
-4.671 -11.723 0.555
-4.735 -11.993 0.563
-4.644 -11.872 0.559
-4.887 -12.663 0.582
-7.615 -19.878 0.794
-7.001 -18.453 0.751
-6.927 -18.432 0.75
-6.861 -18.433 0.749
-6.806 -18.462 0.749
-6.781 -18.484 0.75
-6.737 -18.543 0.751
-4.57 -12.728 0.58
-12.076 -33.837 1.196
-4.417 -12.549 0.574
-4.436 -12.729 0.579
-12.124 -35.007 1.227
-14.827 -43.012 1.459
-12.202 -35.775 1.247
-4.42 -13.144 0.59
-12.041 -36.044 1.253
-11.243 -34.015 1.193
-9.765 -29.867 1.072
-9.647 -29.823 1.07
-6.412 -19.958 0.785
-4.168 -13.142 0.587
-4.092 -13.047 0.584
-4.031 -12.995 0.582
-3.905 -12.732 0.575
-3.867 -12.752 0.575
-4.034 -13.449 0.594
-5.984 -20.021 0.783
-3.758 -12.751 0.574
-3.895 -13.523 0.595
-3.877 -13.622 0.598
-3.832 -13.627 0.598
-3.947 -14.116 0.611
-3.903 -14.132 0.611
-3.857 -14.138 0.611
-3.779 -14.025 0.608
-9.309 -34.836 1.199
-4.04 -15.368 0.645
-4.004 -15.429 0.647
-5.926 -23.854 0.884
-4.598 -18.784 0.74
-4.543 -18.812 0.74
-5.695 -23.882 0.883
-3.731 -15.796 0.655
-2.793 -12.02 0.548
-2.794 -12.198 0.552
-3.648 -16.356 0.669
-3.572 -16.256 0.666
-3.547 -16.385 0.669
-9.079 -42.07 1.391
-8.018 -37.744 1.269
-3.354 -16.362 0.668
-3.345 -16.582 0.673
-1.809 -9.329 0.47
-1.798 -9.351 0.47
-1.728 -9.141 0.464
-2.785 -14.905 0.625
-2.724 -15.103 0.63
-2.678 -15.119 0.631
-3.15 -18.083 0.713
-2.503 -14.533 0.614
-6.085 -35.781 1.206
-5.976 -35.82 1.206
-2.849 -17.497 0.696
-2.797 -17.526 0.696
-2.785 -17.805 0.704
-2.717 -17.555 0.697
-2.33 -15.395 0.636
-1.487 -10.098 0.489
-1.454 -10.096 0.489
-1.773 -12.543 0.557
-1.713 -12.404 0.553
-4.269 -31.347 1.078
-4.22 -31.352 1.078
-4.129 -31.428 1.08
-3.644 -28.441 0.997
-2.385 -19.159 0.739
-2.337 -19.27 0.742
-2.255 -19.093 0.737
-2.032 -17.947 0.705
-1.983 -18.015 0.707
-1.945 -18.2 0.712
-1.605 -15.51 0.637
-1.837 -18.267 0.713
-3.139 -32.035 1.093
-1.606 -17.063 0.68
-1.591 -17.191 0.683
-1.512 -16.927 0.676
-1.333 -15.501 0.636
-2.188 -26.185 0.931
-2.904 -36.002 1.201
-2.017 -26.119 0.928
-0.595 -9.252 0.463
-0.985 -16.619 0.666
-0.931 -16.586 0.665
-0.916 -16.785 0.671
-1.93 -36.922 1.225
-0.641 -13.386 0.577
-0.396 -9.032 0.457
-0.367 -9.03 0.457
-0.329 -8.799 0.451
-0.505 -14.258 0.601
-0.484 -14.307 0.602
-0.439 -14.302 0.602
-0.222 -8.448 0.441
-0.797 -31.388 1.071
-0.698 -31.363 1.071
-0.597 -31.257 1.068
-0.503 -31.501 1.074
-0.324 -22.957 0.84
-0.052 -13.423 0.577
-0.01 -13.563 0.581
0.051 -51.725 1.63
0.164 -38.218 1.259
0.294 -51.688 1.629
0.343 -38.063 1.255
0.464 -38.141 1.257
0.473 -30.585 1.049
0.569 -30.552 1.048
0.216 -9.092 0.459
0.29 -11.73 0.531
0.325 -11.687 0.53
1.731 -53.426 1.677
0.419 -11.22 0.517
0.612 -15.332 0.63
0.622 -14.422 0.605
0.615 -13.711 0.586
0.519 -10.696 0.503
0.552 -10.682 0.503
0.741 -13.649 0.584
0.559 -9.601 0.473
0.824 -13.602 0.583
0.863 -13.544 0.582
0.902 -13.816 0.589
0.935 -13.655 0.585
0.978 -13.65 0.585
1.028 -13.757 0.588
0.706 -8.945 0.455
1.263 -15.016 0.623
1.904 -22.373 0.826
2.613 -29.7 1.028
2.707 -29.696 1.028
2.764 -29.305 1.017
2.61 -26.745 0.947
2.696 -26.759 0.948
4.624 -44.663 1.442
2.808 -26.611 0.944
1.608 -14.265 0.603
1.652 -14.254 0.603
1.67 -14.022 0.597
1.734 -14.179 0.601
1.762 -14.22 0.602
1.796 -14.129 0.6
2.718 -20.961 0.789
2.789 -20.99 0.79
1.934 -14.15 0.601
6.855 -49.479 1.581
6 -41.826 1.37
2.108 -14.254 0.605
1.55 -10.208 0.492
1.608 -10.16 0.491
6.169 -38.665 1.284
2.102 -12.804 0.565
2.125 -12.819 0.566
2.173 -12.859 0.567
2.423 -14.086 0.601
1.377 -7.787 0.426
1.378 -7.652 0.422
1.409 -7.683 0.423
1.432 -7.677 0.423
1.411 -7.492 0.418
3.886 -20.528 0.783
4.815 -25.036 0.909
1.507 -7.612 0.422
1.538 -7.64 0.423
1.524 -7.449 0.418
1.532 -7.427 0.417
1.548 -7.385 0.416
1.572 -7.388 0.416
1.595 -7.379 0.416
1.622 -7.394 0.417
1.651 -7.412 0.417
3.089 -13.771 0.596
2.398 -10.508 0.505
1.687 -7.301 0.415
1.703 -7.267 0.414
2.438 -10.308 0.5
2.469 -10.294 0.5
2.515 -10.343 0.501
2.546 -10.327 0.501
1.84 -7.384 0.418
1.849 -7.32 0.416
1.862 -7.275 0.415
1.888 -7.281 0.415
1.921 -7.316 0.416
1.955 -7.35 0.418
1.99 -7.388 0.419
2.002 -7.387 0.419
2.024 -7.377 0.419
2.052 -7.388 0.419
2.074 -7.378 0.419
2.097 -7.371 0.419
2.247 -7.811 0.432
2.13 -7.312 0.418
2.112 -7.206 0.415
2.26 -7.626 0.427
7.228 -24.315 0.906
2.834 -9.368 0.478
2.42 -7.897 0.436
2.448 -7.901 0.436
2.422 -7.773 0.432
2.354 -7.467 0.424
2.369 -7.431 0.423
2.342 -7.267 0.418
2.461 -7.557 0.427
2.438 -7.409 0.423
2.502 -7.524 0.427
2.561 -7.621 0.43
2.509 -7.425 0.424
2.533 -7.419 0.424
2.56 -7.424 0.424
2.597 -7.454 0.426
2.624 -7.457 0.426
3.361 -9.478 0.485
3.376 -9.473 0.485
2.876 -7.979 0.442
3.667 -10.093 0.504
2.936 -7.987 0.442
2.973 -8.011 0.443
3.744 -10.011 0.502
3.836 -10.16 0.507
3.873 -10.21 0.509
3.945 -10.303 0.512
3.98 -10.296 0.512
3.744 -9.592 0.492
3.781 -9.599 0.492
3.785 -9.52 0.49
3.839 -9.569 0.492
4.029 -9.999 0.505
4.124 -10.144 0.51
4.074 -9.929 0.504
4.14 -10.001 0.506
4.065 -9.732 0.498
3.705 -8.788 0.471
4.085 -9.652 0.497
4.214 -9.873 0.504
11.1 -25.886 0.983
4.472 -10.299 0.517
3.507 -7.994 0.448
4.385 -9.927 0.507
4.409 -9.895 0.506
4.418 -9.875 0.506
4.417 -9.79 0.504
4.954 -10.894 0.537
4.741 -10.337 0.521
3.952 -8.534 0.467
4.678 -10.031 0.513
4.668 -9.928 0.51
3.998 -8.46 0.466
3.971 -8.333 0.462
4.061 -8.454 0.466
4.929 -10.193 0.52
4.207 -8.621 0.472
4.179 -8.495 0.469
3.541 -7.16 0.428
3.574 -7.17 0.429
3.604 -7.173 0.429
3.561 -7.031 0.425
3.643 -7.14 0.429
5.149 -10.036 0.519
5.267 -10.189 0.524
3.771 -7.195 0.432
3.733 -7.068 0.428
4.983 -9.381 0.501
5.675 -10.61 0.539
5.045 -9.355 0.501
5.517 -10.159 0.526
14.451 -26.597 1.04
14.549 -26.577 1.041
5.135 -9.276 0.5
16.659 -29.991 1.151
15.865 -28.349 1.101
5.248 -9.205 0.5
5.369 -9.385 0.506
15.856 -27.614 1.084
15.84 -27.386 1.078
15.887 -27.27 1.076
9.021 -15.351 0.698
9.065 -15.316 0.698
9.115 -15.289 0.698
9.111 -15.228 0.696
8.853 -14.691 0.68
8.89 -14.647 0.679
8.958 -14.655 0.681
9.019 -14.653 0.681
18.223 -29.447 1.16
17.42 -28.049 1.116
18.464 -29.32 1.161
11.589 -18.131 0.8
34.473 -53.285 1.952
13.805 -21.236 0.905
13.861 -21.176 0.904
9.468 -14.254 0.679
9.504 -14.211 0.678
9.53 -14.153 0.677
9.575 -14.124 0.678
9.603 -14.117 0.678
9.802 -14.313 0.685
19.168 -27.846 1.138
20.455 -29.52 1.195
20.653 -29.607 1.201
27.564 -39.265 1.527
33.16 -46.932 1.788
30.131 -42.499 1.64
8.92 -12.384 0.628
8.957 -12.353 0.628
8.991 -12.318 0.628
9.039 -12.303 0.628
9.007 -12.138 0.624
9.042 -12.107 0.624
9.072 -12.067 0.623
9.234 -12.203 0.629
20.877 -27.463 1.157
21.374 -27.936 1.175
21.138 -27.538 1.163
21.274 -27.534 1.165
21.269 -27.351 1.161
21.433 -27.383 1.164
20.493 -26.011 1.119
5.657 -7.104 0.458
5.729 -7.148 0.46
5.768 -7.174 0.462
5.835 -7.212 0.464
5.873 -7.212 0.464
5.953 -7.263 0.467
5.949 -7.212 0.466
6.039 -7.275 0.468
6.136 -7.345 0.472
6.095 -7.273 0.469
6.141 -7.281 0.47
6.175 -7.275 0.471
6.202 -7.261 0.471
6.213 -7.227 0.471
6.249 -7.223 0.471
7.86 -9.038 0.538
7.855 -9.003 0.537
7.859 -8.951 0.536
7.878 -8.916 0.536
7.881 -8.863 0.535
7.91 -8.84 0.535
7.939 -8.816 0.535
7.953 -8.804 0.535
8.001 -8.801 0.535
8.086 -8.839 0.538
7.838 -8.513 0.527
7.7 -8.309 0.52
7.202 -7.672 0.498
7.218 -7.665 0.498
7.309 -7.714 0.501
7.362 -7.721 0.502
7.511 -7.828 0.507
12.62 -13.096 0.708
12.649 -13.044 0.708
12.373 -12.679 0.695
7.566 -7.713 0.506
7.507 -7.605 0.502
7.476 -7.526 0.5
7.393 -7.395 0.496
7.173 -7.129 0.487
7.206 -7.118 0.487
7.552 -7.414 0.499
7.52 -7.36 0.498
7.05 -6.854 0.479
7.247 -7.002 0.486
7.195 -6.908 0.483
7.175 -6.845 0.481
7.241 -6.865 0.483
7.462 -7.031 0.49
7.3 -6.856 0.484
38.039 -35.427 1.637
38.842 -35.948 1.663
25.302 -23.258 1.153
25.372 -23.175 1.153
46.137 -41.774 1.919
28.938 -26.023 1.278
25.783 -23.036 1.159
25.829 -22.931 1.158
7.876 -6.924 0.497
7.992 -6.982 0.5
7.932 -6.908 0.498
8.025 -6.944 0.5
8.068 -6.938 0.501
8.105 -6.925 0.502
8.332 -7.075 0.509
8.28 -6.941 0.506
8.173 -6.829 0.501
8.108 -6.732 0.498
8.134 -6.71 0.498
8.147 -6.678 0.498
8.187 -6.668 0.499
13.56 -10.995 0.688
13.55 -10.916 0.687
13.526 -10.862 0.685
13.101 -10.453 0.669
13.283 -10.462 0.673
14.159 -11.082 0.703
13.391 -10.411 0.675
13.426 -10.405 0.675
14.03 -10.804 0.695
14.132 -10.812 0.698
14.298 -10.868 0.702
14.362 -10.846 0.703
14.126 -10.598 0.694
14.115 -10.52 0.692
14.229 -10.571 0.696
14.294 -10.55 0.697
14.353 -10.524 0.698
14.707 -10.713 0.709
14.722 -10.653 0.708
14.844 -10.671 0.711
14.878 -10.624 0.711
23.642 -16.846 1.006
26.524 -18.778 1.102
23.953 -16.842 1.013
23.934 -16.716 1.011
15.371 -10.652 0.723
15.506 -10.674 0.726
15.622 -10.682 0.729
8.816 -5.994 0.502
8.77 -5.922 0.499
8.722 -5.85 0.497
8.721 -5.809 0.497
8.699 -5.755 0.495
8.699 -5.716 0.495
8.718 -5.709 0.495
8.704 -5.661 0.494
8.723 -5.634 0.494
8.731 -5.6 0.494
8.741 -5.569 0.493
8.771 -5.549 0.494
8.778 -5.515 0.493
8.785 -5.5 0.493
8.812 -5.479 0.494
8.838 -5.456 0.494
8.862 -5.433 0.494
8.905 -5.42 0.495
8.933 -5.4 0.495
8.997 -5.399 0.497
9.075 -5.427 0.499
16.861 -10.038 0.748
16.872 -9.973 0.747
16.898 -9.917 0.747
16.938 -9.869 0.747
16.991 -9.828 0.748
17.069 -9.802 0.749
17.304 -9.901 0.756
40.449 -23.016 1.487
43.253 -24.434 1.574
43.318 -24.291 1.573
43.425 -24.173 1.574
41.624 -22.998 1.515
41.743 -22.893 1.517
29.357 -15.912 1.126
29.423 -15.828 1.127
29.516 -15.759 1.128
40.685 -21.569 1.474
25.101 -13.195 0.988
25.016 -13.05 0.984
41.889 -21.788 1.506
25.586 -13.195 1
25.682 -13.143 1.001
17.682 -8.9 0.753
17.722 -8.85 0.753
27.41 -13.65 1.05
27.465 -13.57 1.05
17.516 -8.576 0.745
17.491 -8.495 0.743
17.509 -8.436 0.743
23.291 -11.142 0.918
17.511 -8.302 0.741
15.649 -7.386 0.684
15.744 -7.371 0.686
15.742 -7.309 0.686
15.587 -7.178 0.68
15.095 -6.893 0.665
15.113 -6.844 0.664
15.209 -6.83 0.667
15.375 -6.876 0.671
15.4 -6.829 0.672
15.451 -6.793 0.672
15.472 -6.745 0.672
15.686 -6.78 0.678
40.251 -17.292 1.412
19.536 -8.197 0.791
39.929 -16.636 1.397
39.954 -16.499 1.396
40.055 -16.394 1.398
16.063 -6.499 0.685
16.129 -6.437 0.686
16.188 -6.402 0.687
16.178 -6.339 0.686
16.22 -6.297 0.687
16.225 -6.24 0.686
16.333 -6.223 0.689
16.499 -6.257 0.693
16.555 -6.159 0.694
16.576 -6.108 0.694
20.422 -7.386 0.805
20.462 -7.328 0.806
20.347 -7.251 0.802
20.47 -7.222 0.805
20.5 -7.16 0.805
20.588 -7.119 0.807
20.499 -7.016 0.804
35.232 -11.954 1.231
36.345 -12.206 1.262
24.684 -8.151 0.923
24.737 -8.083 0.924
25.002 -8.083 0.931
24.898 -7.963 0.927
42.061 -13.325 1.421
46.744 -14.65 1.555
42.343 -13.196 1.427
42.19 -13.002 1.422
42.492 -12.95 1.429
42.63 -12.846 1.432
42.352 -12.617 1.423
42.591 -12.542 1.429
45.11 -13.132 1.5
57.46 -16.637 1.852
45.102 -12.899 1.498
37.937 -10.717 1.292
38.655 -10.658 1.31
38.715 -10.544 1.311
34.373 -9.301 1.187
34.228 -9.146 1.182
37.339 -9.854 1.27
42.806 -11.157 1.424
29.181 -7.499 1.037
28.238 -7.067 1.008
28.154 -6.999 1.006
28.128 -6.899 1.004
28.186 -6.82 1.005
28.171 -6.722 1.004
39.045 -9.198 1.311
39.046 -9.068 1.31
39.03 -8.936 1.309
39.192 -8.908 1.313
29.02 -6.493 1.026
28.825 -6.354 1.02
40.145 -8.728 1.337
28.73 -6.144 1.016
39.567 -8.342 1.32
40.503 -8.407 1.345
40.654 -8.372 1.349
40.484 -8.204 1.344
46.206 -9.217 1.503
36.778 -7.211 1.238
36.569 -6.931 1.231
36.911 -6.876 1.24
36.057 -6.658 1.216
36.233 -6.573 1.22
37.033 -6.598 1.242
37.183 -6.505 1.246
37.848 -6.499 1.264
37.732 -6.357 1.26
37.287 -6.222 1.247
37.332 -6.109 1.248
37.398 -5.999 1.249
45.944 -7.228 1.487
48.351 -7.297 1.552
58.795 -8.69 1.842
58.619 -8.57 1.836
58.608 -8.38 1.835
58.759 -8.213 1.839
57.227 -7.815 1.796
57.295 -7.641 1.797
68.393 -8.689 2.103
60.93 -7.641 1.896
68.476 -8.372 2.104
58.65 -6.793 1.831
58.419 -6.581 1.824
58.475 -6.401 1.825
58.636 -6.232 1.829
76.362 -6.792 2.315
76.164 -6.533 2.309
76.148 -6.412 2.308
77.703 8.711 1.989
74.39 8.575 1.914
66.306 10.399 1.737
51.149 8.098 1.388
51.094 8.254 1.387
57.655 9.876 1.541
57.32 10.004 1.534
57.338 10.192 1.535
57.423 10.487 1.538
57.691 11.099 1.546
57.854 11.319 1.551
55.859 11.11 1.505
55.426 11.114 1.496
40.586 8.264 1.152
40.537 8.387 1.151
40.602 8.533 1.153
55.702 11.9 1.506
56.475 12.251 1.524
56.239 12.385 1.52
46.348 10.278 1.29
46.212 10.401 1.287
46.288 10.571 1.29
46.488 10.77 1.295
46.437 10.912 1.295
46.005 10.963 1.285
46.093 11.137 1.288
46.66 11.352 1.302
59.152 14.793 1.597
54.779 14.247 1.497
33.074 8.87 0.988
33.017 8.965 0.988
32.935 9.054 0.986
48.808 13.596 1.362
59.77 16.858 1.623
48.85 13.856 1.365
48.731 13.988 1.363
48.57 14.107 1.36
48.995 14.398 1.371
62.059 18.456 1.683
48.524 14.841 1.364
55.196 17.265 1.525
45.839 14.492 1.303
45.729 14.615 1.302
45.743 14.778 1.303
74.757 24.429 2
69.805 23.174 1.883
69.722 23.39 1.883
37.88 12.96 1.12
37.805 13.067 1.119
37.718 13.104 1.118
59.68 20.96 1.649
28.864 10.225 0.906
28.769 10.395 0.905
28.968 10.57 0.911
28.818 10.618 0.908
33.857 12.54 1.031
33.432 12.502 1.021
32.994 12.456 1.012
32.742 12.478 1.006
33.467 12.876 1.025
33.412 12.975 1.025
33.367 13.079 1.025
35.268 13.889 1.072
35.125 13.961 1.069
32.916 13.201 1.016
34.668 14.032 1.06
31.887 13.021 0.993
31.693 13.057 0.989
31.504 13.095 0.985
31.644 13.212 0.989
31.617 13.318 0.99
34.663 14.732 1.066
31.26 13.399 0.983
38.777 16.772 1.171
31.513 13.743 0.991
31.469 13.842 0.991
33.638 14.861 1.046
39.228 17.482 1.186
37.732 16.957 1.15
38.309 17.361 1.166
29.797 13.724 0.955
29.897 13.884 0.959
30.967 14.441 0.987
30.634 14.403 0.979
37.936 17.989 1.165
31.403 15.007 1.001
31.397 15.126 1.002
38.565 18.735 1.185
29.89 14.572 0.966
29.884 14.686 0.967
29.741 14.848 0.965
20.499 10.306 0.731
20.426 10.349 0.73
18.654 9.523 0.685
18.645 9.555 0.685
18.366 9.485 0.679
18.457 9.605 0.682
17.832 9.351 0.667
17.712 9.359 0.665
16.801 9.011 0.642
16.748 9.017 0.641
16.735 9.078 0.642
16.696 9.125 0.642
16.799 9.25 0.645
30.144 16.745 0.994
30.196 16.898 0.996
30.256 17.057 0.999
44.754 25.337 1.38
24.748 14.308 0.859
24.708 14.388 0.859
24.639 14.452 0.859
24.538 14.496 0.857
29 17.199 0.976
28.946 17.29 0.976
28.796 17.323 0.974
31.136 18.867 1.037
31.119 18.991 1.039
25.132 15.44 0.88
25.089 15.522 0.88
25.092 15.578 0.881
24.804 15.508 0.875
24.876 15.662 0.878
23.949 15.288 0.855
23.682 15.223 0.849
30.139 19.448 1.025
30.047 19.523 1.024
31.762 20.781 1.073
29.807 19.634 1.021
24.122 15.993 0.867
29.542 19.727 1.017
22.917 15.4 0.837
23.043 15.538 0.841
22.826 15.496 0.837
22.787 15.574 0.837
22.587 15.541 0.833
22.554 15.624 0.833
22.49 15.684 0.833
22.469 15.774 0.834
22.455 15.817 0.834
28.418 20.16 1.002
25.777 18.529 0.931
25.651 18.56 0.929
24.766 18.037 0.906
24.706 18.113 0.906
24.711 18.176 0.907
31.667 23.456 1.106
27.329 20.506 0.986
25.216 19.167 0.93
19.198 14.68 0.759
19.158 14.697 0.758
19.315 14.915 0.764
30.101 23.413 1.077
29.974 23.465 1.075
29.925 23.579 1.076
50.415 40.134 1.676
22.413 17.939 0.862
33.228 26.956 1.183
33.069 26.999 1.181
20.455 16.796 0.811
20.493 16.935 0.814
20.331 16.855 0.81
14.087 11.743 0.626
14.033 11.773 0.625
21.139 17.865 0.839
13.517 11.484 0.612
13.571 11.604 0.615
13.548 11.658 0.615
13.673 11.804 0.62
13.799 11.988 0.625
13.776 12.045 0.625
13.804 12.146 0.627
14.101 12.487 0.637
13.711 12.296 0.628
13.006 11.699 0.607
12.993 11.761 0.607
22.7 20.704 0.908
13.625 12.492 0.629
13.458 12.416 0.625
13.387 12.429 0.624
13.39 12.51 0.626
12.996 12.179 0.614
12.862 12.13 0.611
12.649 12.003 0.605
12.591 12.023 0.605
12.762 12.264 0.611
28.036 27.156 1.097
27.966 27.26 1.098
28.193 27.568 1.106
20.894 20.55 0.876
20.619 20.407 0.869
29.563 29.459 1.159
29.473 29.555 1.159
29.346 29.613 1.158
23.204 23.481 0.96
20.296 20.664 0.868
28.263 28.971 1.13
22.216 22.908 0.935
27.963 29.025 1.126
27.002 28.204 1.098
26.218 27.557 1.075
28.289 29.83 1.145
27.702 29.395 1.128
27.809 29.695 1.135
28.314 30.427 1.155
27.433 29.665 1.129
11.543 12.618 0.598
11.499 12.65 0.598
11.308 12.478 0.592
11.179 12.414 0.589
11.378 12.716 0.597
11.631 13.082 0.607
5.153 5.866 0.386
13.934 15.88 0.689
5.159 5.911 0.387
5.178 5.971 0.388
5.216 6.053 0.39
5.273 6.198 0.394
5.165 6.109 0.39
14.52 17.303 0.723
24.293 29.164 1.073
24.655 29.788 1.089
16.633 20.343 0.807
16.543 20.362 0.806
16.47 20.403 0.805
16.597 20.627 0.811
16.435 20.557 0.808
15.632 19.805 0.783
24.701 31.523 1.12
14.204 18.346 0.737
14.019 18.165 0.731
19.178 25.027 0.926
18.263 23.987 0.895
10.873 14.452 0.62
27.016 36.208 1.237
10.829 14.582 0.622
10.74 14.511 0.619
10.708 14.562 0.62
14.866 20.369 0.783
18.065 24.926 0.909
18.708 25.986 0.938
13.785 19.392 0.75
13.863 19.567 0.754
17.855 25.383 0.915
17.733 25.379 0.913
23.998 34.592 1.167
14.995 21.744 0.81
20.325 29.688 1.028
20.175 29.669 1.025
20.13 29.702 1.025
13.932 20.683 0.776
14.052 21.004 0.784
14.197 21.366 0.793
18.122 27.473 0.958
16.275 24.837 0.885
16.225 24.932 0.886
16.222 25.013 0.887
16.172 25.109 0.889
20.1 31.436 1.058
18.136 28.557 0.979
18.072 28.654 0.98
15.943 25.451 0.892
15.838 25.46 0.891
15.762 25.427 0.89
10.535 17.098 0.666
9.413 15.489 0.621
9.348 15.491 0.62
9.298 15.519 0.62
9.246 15.543 0.62
9.247 15.601 0.621
11.019 18.734 0.703
10.91 18.682 0.701
9.959 17.299 0.663
5.95 10.39 0.481
5.877 10.337 0.479
5.851 10.329 0.479
5.814 10.338 0.478
5.785 10.364 0.479
5.768 10.41 0.479
5.763 10.479 0.481
5.717 10.472 0.48
5.535 10.252 0.474
8.316 15.667 0.612
8.434 16.136 0.623
8.338 16.073 0.621
8.755 16.947 0.643
8.645 16.862 0.64
7.94 15.603 0.607
9.553 18.933 0.691
7.986 15.941 0.614
7.81 15.838 0.61
7.791 15.988 0.613
7.741 16.014 0.613
7.685 16.026 0.613
7.61 16 0.612
7.557 16.016 0.612
7.422 15.859 0.607
7.389 15.854 0.607
7.422 16.055 0.611
7.38 16.098 0.612
7.287 16.027 0.609
7.19 15.947 0.607
7.199 16.239 0.613
7.217 16.349 0.615
9.337 21.354 0.739
11.96 27.607 0.894
7.093 16.488 0.617
7.028 16.623 0.619
6.938 16.554 0.617
8.597 20.622 0.717
6.765 16.505 0.615
8.327 20.515 0.713
6.675 16.58 0.615
10.28 25.809 0.841
6.536 16.534 0.613
6.529 16.593 0.614
8.309 21.333 0.73
8.245 21.368 0.73
8.181 21.402 0.73
6.352 16.758 0.616
9.469 25.258 0.823
9.819 26.449 0.851
9.106 24.64 0.807
7.593 20.736 0.711
7.498 20.677 0.709
9.222 26.22 0.841
5.396 15.544 0.583
5.334 15.521 0.582
8.431 24.835 0.806
5.303 15.753 0.587
5.456 16.381 0.602
5.299 16.077 0.594
5.213 15.983 0.591
5.191 16.003 0.591
10.639 33.24 1.003
6.665 21.019 0.71
10.387 33.169 1
6.357 20.493 0.697
6.357 20.957 0.707
6.335 21.006 0.708
4.944 16.561 0.602
4.869 16.498 0.6
5.054 17.331 0.619
8.711 30.296 0.926
8.411 29.598 0.909
5.15 18.306 0.641
4.861 17.378 0.619
4.844 17.53 0.623
4.805 17.603 0.624
4.777 17.721 0.626
5.599 21.054 0.704
4.94 18.801 0.651
4.823 18.715 0.648
4.74 18.632 0.646
4.699 18.718 0.648
4.63 18.692 0.647
4.629 18.944 0.652
4.406 18.275 0.636
3.801 15.974 0.582
4.068 17.223 0.611
4.014 17.238 0.611
4.114 17.925 0.627
3.601 16.145 0.585
3.592 16.344 0.589
3.715 17.17 0.608
3.424 16.187 0.585
4.502 22.367 0.728
3.258 16.417 0.589
3.174 16.259 0.586
3.374 17.442 0.613
3.508 18.451 0.636
3.131 16.741 0.596
3.989 21.749 0.712
2.551 14.111 0.535
3.123 17.623 0.616
3.068 17.634 0.616
4.189 24.366 0.771
2.995 17.712 0.617
2.717 16.366 0.586
2.66 16.677 0.593
2.565 16.408 0.587
2.224 14.509 0.543
2.215 14.605 0.545
2.779 18.764 0.64
2.169 14.935 0.552
1.996 14.045 0.531
1.931 14.226 0.535
1.899 14.331 0.538
1.929 15.119 0.555
1.853 14.893 0.55
1.773 14.619 0.544
1.721 14.569 0.542
1.674 14.564 0.542
1.627 14.556 0.542
1.606 14.576 0.542
1.562 14.599 0.543
1.543 14.868 0.549
1.52 15.62 0.566
1.426 15.133 0.554
1.399 15.37 0.56
1.781 20 0.666
2.082 24.307 0.764
1.225 15.317 0.558
1.137 14.786 0.546
1.039 14.725 0.544
1.022 14.815 0.546
0.978 14.87 0.548
0.953 15.224 0.556
0.897 15.079 0.552
0.855 15.184 0.555
0.811 15.26 0.556
0.783 15.68 0.566
0.759 15.688 0.566
0.713 15.762 0.568
0.661 15.712 0.566
0.595 15.26 0.556
0.55 15.346 0.558
0.501 15.318 0.557
0.454 15.385 0.559
0.432 15.446 0.56
0.393 15.855 0.569
0.283 15.265 0.556
0.278 18.397 0.627
0.221 18.458 0.629
0.162 18.324 0.626
0.132 18.089 0.62
0.075 18.071 0.62
0.018 18.043 0.619
-0.039 18.027 0.619
-0.095 18.001 0.618
-0.151 17.917 0.616
-0.202 17.562 0.608
-0.231 17.624 0.61
-0.286 17.629 0.61
-0.295 15.377 0.559
-0.769 33.134 0.963
-0.387 15.219 0.555
-0.484 15.25 0.556
-0.506 15.182 0.554
-0.576 15.765 0.568
-0.947 23.555 0.745
-0.732 15.923 0.571
-0.788 16.034 0.574
-0.838 16.034 0.574
-0.857 15.925 0.571
-0.904 15.059 0.552
-0.948 15.002 0.551
-1.008 15.185 0.555
-1.729 24.635 0.771
-1.812 24.703 0.772
-1.912 25.504 0.791
-1.424 18.32 0.627
-1.478 18.274 0.626
-1.507 17.936 0.618
-1.56 17.891 0.617
-1.343 14.914 0.549
-1.391 14.923 0.55
-1.412 14.891 0.549
-1.455 14.853 0.548
-1.742 17.181 0.602
-1.75 16.742 0.592
-1.613 15.004 0.552
-1.661 15.006 0.552
-2.153 18.848 0.64
-2.205 19.034 0.645
-2.092 17.595 0.612
-2.138 17.513 0.61
-2.516 20.051 0.669
-2.377 18.491 0.633
-2.37 17.994 0.622
-1.995 14.822 0.549
-2.02 14.833 0.549
-2.074 14.88 0.55
-2.575 18.018 0.623
-2.172 14.898 0.551
-2.224 14.921 0.552
-2.657 17.424 0.61
-2.319 14.917 0.552
-2.304 14.674 0.547
-2.402 14.983 0.554
-2.978 18.179 0.628
-3.015 18.051 0.625
-2.928 16.885 0.599
-3.074 17.398 0.611
-3.093 17.344 0.61
-3.131 17.245 0.607
-3.1 16.78 0.597
-3.169 16.856 0.599
-3.224 16.856 0.599
-3.312 17.026 0.603
-3.64 18.388 0.635
-2.857 14.344 0.541
-2.887 14.265 0.54
-2.929 14.242 0.539
-2.969 14.209 0.539
-3.877 17.957 0.627
-3.704 16.906 0.602
-4.273 19.336 0.659
-3.872 17.277 0.612
-3.847 16.92 0.603
-3.927 17.024 0.606
-4.154 17.749 0.623
-4.229 17.814 0.625
-4.988 20.704 0.693
-5.03 20.735 0.694
-4.652 18.926 0.652
-4.785 18.954 0.654
-4.875 19.057 0.656
-4.936 19.048 0.656
-9.104 34.595 1.023
-8.854 33.436 0.996
-8.879 33.109 0.989
-9.014 33.195 0.992
-5.729 20.874 0.701
-5.733 20.637 0.696
-5.747 20.44 0.692
-5.702 20.039 0.683
-5.859 20.466 0.693
-5.908 20.396 0.692
-11.571 39.393 1.143
-11.68 39.309 1.142
-4.119 13.607 0.532
-4.146 13.544 0.531
-4.205 13.66 0.534
-4.176 13.415 0.528
-6.543 20.743 0.704
-6.517 20.438 0.697
-6.573 20.393 0.696
-6.639 20.376 0.696
-6.788 20.613 0.703
-11.243 33.909 1.022
-12.188 36.37 1.082
-12.992 38.365 1.131
-13.054 38.152 1.127
-3.362 9.688 0.442
-3.385 9.655 0.441
-3.401 9.654 0.441
-3.477 9.769 0.444
-3.252 9.051 0.427
-13.051 35.748 1.075
-13.166 35.715 1.075
-13.388 35.967 1.082
-13.463 35.826 1.08
-13.43 35.567 1.074
-13.683 35.895 1.083
-12.432 32.316 0.997
-10.605 27.322 0.876
-10.665 27.222 0.874
-10.669 26.984 0.869
-10.798 27.06 0.872
-9.747 24.213 0.803
-9.8 24.233 0.804
-11.225 27.499 0.885
-11.35 27.558 0.887
-11.398 27.428 0.885
-11.451 27.315 0.883
-11.365 26.874 0.873
-13.903 32.574 1.015
-14.011 32.684 1.018
-14.068 32.536 1.016
-14.206 32.574 1.018
-3.896 8.828 0.428
-6.117 13.709 0.55
-6.059 13.466 0.545
-6.067 13.429 0.544
-6.09 13.368 0.543
-6.107 13.294 0.541
-6.135 13.244 0.541
-6.152 13.174 0.539
-6.302 13.384 0.545
-6.77 14.258 0.568
-6.86 14.388 0.571
-6.915 14.386 0.572
-6.3 13.009 0.537
-6.367 13.041 0.539
-6.341 12.886 0.535
-6.395 12.893 0.536
-6.427 12.855 0.536
-12.795 25.438 0.857
-6.767 13.376 0.55
-8.625 16.901 0.64
-8.699 16.913 0.641
-6.831 13.192 0.547
-6.874 13.174 0.547
-7.297 13.876 0.565
-7.243 13.721 0.562
-7.591 14.268 0.576
-7.381 13.668 0.562
-9.01 16.549 0.637
-8.353 15.232 0.604
-9.249 16.674 0.643
-7.821 14.004 0.574
-9.181 16.31 0.635
-8.296 14.636 0.591
-8.044 14.089 0.578
-14.17 24.422 0.851
-14.444 24.803 0.862
-8.197 13.998 0.578
-12.703 21.508 0.777
-8.328 13.919 0.578
-8.336 13.834 0.576
-9.574 15.768 0.628
-9.607 15.767 0.629
-9.673 15.764 0.63
-12.596 20.226 0.751
-12.641 20.158 0.75
-8.212 13.021 0.559
-8.311 13.086 0.561
-13.813 21.494 0.79
-13.914 21.502 0.792
-16.92 25.958 0.914
-17.367 26.461 0.929
-17.471 26.438 0.93
-9.496 14.245 0.598
-9.496 14.148 0.596
-9.44 13.971 0.592
-9.504 13.971 0.593
-19.962 29.095 1.012
-9.643 13.985 0.595
-9.486 13.666 0.587
-9.487 13.622 0.586
-15.12 21.538 0.808
-9.195 12.942 0.57
-15.715 21.942 0.823
-20.318 28.17 0.999
-20.229 27.862 0.992
-20.393 27.995 0.997
-20.515 27.977 0.998
-20.48 27.745 0.994
-20.76 27.941 1.001
-20.856 27.887 1.001
-20.907 27.773 1
-16.404 21.658 0.827
-16.426 21.616 0.827
-17.407 22.61 0.858
-13.086 16.898 0.695
-13.11 16.819 0.694
-19.043 24.254 0.911
-13.546 17.155 0.706
-13.413 16.931 0.7
-13.444 16.861 0.699
-13.522 16.85 0.7
-22.284 27.564 1.016
-14.362 17.667 0.727
-14.43 17.637 0.727
-14.011 17.016 0.71
-14.012 16.963 0.709
-16.27 19.564 0.788
-16.358 19.545 0.789
-16.423 19.498 0.789
-16.453 19.41 0.788
-14.789 17.34 0.727
-14.962 17.431 0.731
-15.017 17.44 0.732
-15.024 17.338 0.731
-15.097 17.312 0.731
-15.143 17.255 0.731
-15.208 17.22 0.732
-16.749 18.841 0.782
-16.64 18.542 0.776
-16.937 18.753 0.784
-11.709 12.895 0.605
-16.954 18.537 0.78
-15.782 17.15 0.739
-15.803 17.065 0.738
-17.258 18.516 0.785
-8.364 8.965 0.488
-8.363 8.908 0.487
-8.382 8.872 0.486
-8.407 8.842 0.486
-8.434 8.816 0.486
-8.456 8.784 0.486
-8.412 8.682 0.484
-8.549 8.797 0.488
-16.325 16.658 0.739
-16.126 16.352 0.731
-13.609 13.633 0.647
-13.627 13.567 0.646
-13.667 13.521 0.646
-13.687 13.498 0.646
-13.913 13.635 0.652
-13.843 13.481 0.648
-16.443 15.807 0.728
-16.595 15.754 0.729
-20.394 19.291 0.848
-20.423 19.197 0.847
-17.834 16.663 0.764
-16.841 15.638 0.732
-16.81 15.512 0.729
-16.725 15.336 0.725
-17.016 15.504 0.733
-17.242 15.562 0.737
-18.441 16.537 0.772
-16.997 15.149 0.727
-16.98 15.039 0.725
-21.067 18.533 0.847
-16.81 14.702 0.717
-16.909 14.741 0.719
-17.056 14.775 0.722
-17.132 14.746 0.723
-16.997 14.538 0.718
-17.312 14.713 0.726
-18.345 15.49 0.755
-17.165 14.358 0.718
-20.727 17.22 0.822
-20.745 17.126 0.821
-19.956 16.37 0.796
-20.904 17.037 0.822
-20.799 16.843 0.818
-20.904 16.82 0.819
-21.023 16.861 0.822
-20.965 16.706 0.819
-16.816 13.32 0.697
-17.399 13.604 0.711
-17.38 13.502 0.71
-17.837 13.767 0.721
-18.306 14.082 0.734
-17.802 13.606 0.719
-17.795 13.513 0.717
-17.895 13.5 0.719
-18.003 13.493 0.721
-18.012 13.411 0.72
-18.237 13.49 0.725
-20.631 15.206 0.792
-17.793 13.033 0.711
-18.357 13.269 0.724
-18.382 13.199 0.724
-18.303 13.056 0.72
-18.259 12.938 0.718
-18.313 12.934 0.719
-19.307 13.543 0.745
-19.443 13.548 0.748
-19.599 13.565 0.751
-19.79 13.605 0.755
-18.4 12.567 0.716
-18.484 12.539 0.717
-18.609 12.58 0.72
-18.512 12.431 0.716
-19.051 12.533 0.728
-19.923 13.016 0.75
-19.972 12.959 0.751
-35.166 22.716 1.162
-30.547 19.6 1.035
-30.563 19.475 1.034
-19.572 12.397 0.736
-19.406 12.206 0.73
-19.429 12.136 0.73
-19.321 11.984 0.726
-19.333 11.95 0.726
-24.421 14.875 0.86
-24.289 14.691 0.855
-25.481 15.301 0.885
-24.737 14.75 0.864
-24.763 14.713 0.864
-24.904 14.691 0.867
-25.328 14.834 0.877
-25.24 14.676 0.873
-25.482 14.709 0.878
-25.361 14.534 0.874
-23.496 13.369 0.824
-25.279 14.224 0.869
-24.44 13.652 0.846
-24.397 13.528 0.844
-25.54 13.952 0.871
-25.139 13.631 0.86
-24.886 13.393 0.852
-25.774 13.818 0.874
-25.983 13.825 0.879
-23.867 12.509 0.822
-26.066 13.555 0.877
-25.952 13.393 0.873
-26.29 13.462 0.881
-23.622 11.959 0.811
-23.651 11.88 0.811
-29.754 14.822 0.965
-30.695 15.169 0.988
-29.965 14.692 0.968
-29.964 14.575 0.967
-24.184 11.722 0.82
-24.013 11.547 0.815
-24.055 11.474 0.815
-30.253 14.307 0.97
-30.609 14.357 0.978
-19.44 8.98 0.696
-19.42 8.934 0.695
-19.493 8.894 0.696
-19.423 8.788 0.694
-19.209 8.619 0.688
-19.214 8.549 0.687
-19.106 8.429 0.684
-19.189 8.43 0.686
-19.138 8.336 0.684
-19.217 8.299 0.685
-19.354 8.285 0.688
-19.324 8.201 0.686
-19.77 8.316 0.697
-19.759 8.239 0.696
-19.933 8.274 0.7
-19.963 8.213 0.7
-20.061 8.18 0.702
-20.465 8.269 0.711
-20.583 8.242 0.713
-20.213 8.021 0.704
-20.123 7.912 0.701
-20.411 7.988 0.707
-19.97 7.743 0.696
-19.938 7.659 0.695
-19.915 7.579 0.694
-23.681 8.922 0.785
-23.47 8.759 0.779
-37.886 13.986 1.128
-24.362 8.873 0.799
-24.339 8.778 0.798
-24.334 8.69 0.797
-24.09 8.518 0.79
-23.895 8.365 0.785
-23.886 8.278 0.784
-23.933 8.252 0.785
-24.377 8.319 0.795
-41.901 14.133 1.215
-24.607 8.225 0.799
-41.431 13.685 1.202
-32.821 10.732 0.995
-32.828 10.621 0.994
-43.131 13.871 1.24
-49.667 15.797 1.395
-43.48 13.682 1.246
-43.548 13.553 1.247
-43.372 13.349 1.242
-43.364 13.198 1.241
-32.415 9.761 0.979
-32.283 9.666 0.976
-44.636 13.202 1.268
-44.889 13.124 1.273
-44.97 12.994 1.274
-44.98 12.844 1.274
-44.845 12.653 1.27
-44.713 12.465 1.265
-43.524 12.06 1.237
-43.323 11.858 1.231
-43.725 11.82 1.24
-44.017 11.751 1.246
-44.409 11.706 1.254
-41.502 10.802 1.185
-41.406 10.639 1.182
-44.319 11.311 1.25
-41.929 10.562 1.193
-41.911 10.418 1.192
-41.971 10.293 1.193
-45.424 10.986 1.273
-45.606 10.879 1.276
-45.416 10.683 1.271
-55.364 12.742 1.502
-45.052 10.225 1.26
-47.221 10.404 1.31
-38.639 8.391 1.109
-39.099 8.298 1.119
-38.784 8.104 1.111
-38.77 7.974 1.11
-38.834 7.86 1.111
-54.678 10.878 1.478
-39.309 7.699 1.121
-59.254 11.399 1.583
-59.305 11.312 1.583
-59.631 11.18 1.59
-59.67 10.994 1.59
-48.569 8.638 1.332
-48.614 8.489 1.332
-55.39 9.489 1.488
-60.082 9.612 1.594
-55.827 8.574 1.495
-63.602 9.458 1.673
-59.899 8.524 1.586
-59.753 8.312 1.582
-59.818 8.13 1.583
-59.703 7.923 1.58
-59.666 7.728 1.579
-59.609 7.625 1.577
-63.363 7.901 1.663
-59.645 7.249 1.577
-69.126 7.737 1.793
-59.424 6.466 1.57
-60.07 5.868 1.583
-64.636 5.698 1.686
-64.649 5.597 1.686
-69.802 -6.935 1.806
-61.172 -7.534 1.612
-58.456 -7.385 1.55
-44.763 -5.792 1.236
-44.499 -5.9 1.231
-52.183 -7.09 1.408
-43.892 -6.029 1.217
-52.06 -7.323 1.406
-51.953 -7.474 1.404
-52.125 -7.666 1.408
-44.102 -6.624 1.224
-41.788 -6.544 1.172
-59.214 -9.379 1.574
-39.036 -6.552 1.11
-38.989 -6.67 1.109
-38.976 -6.794 1.109
-39.073 -6.937 1.112
-43.105 -7.866 1.206
-41.868 -8.048 1.179
-38.715 -7.692 1.107
-46.486 -9.622 1.289
-43.056 -9.051 1.21
-23.709 -5.128 0.761
-23.461 -5.151 0.755
-42.738 -9.617 1.206
-37.515 -8.562 1.085
-37.28 -8.632 1.08
-23.549 -5.521 0.759
-23.477 -5.582 0.758
-23.318 -5.621 0.755
-23.237 -5.64 0.753
-37.036 -9.128 1.077
-24.16 -6.107 0.776
-24.067 -6.164 0.774
-24.016 -6.231 0.773
-23.95 -6.294 0.772
-23.849 -6.308 0.77
-23.978 -6.423 0.774
-24.029 -6.518 0.775
-23.806 -6.537 0.771
-23.898 -6.724 0.774
-23.905 -6.807 0.774
-23.364 -6.692 0.762
-23.057 -6.683 0.755
-22.932 -6.724 0.753
-22.395 -6.72 0.741
-37.997 -11.55 1.113
-22.26 -6.87 0.739
-31.006 -9.686 0.948
-30.958 -9.778 0.948
-30.957 -9.885 0.948
-44.809 -14.476 1.281
-20.492 -6.748 0.7
-20.558 -6.877 0.702
-23.757 -8.035 0.779
-20.836 -7.117 0.71
-23.501 -8.113 0.775
-20.557 -7.166 0.704
-20.525 -7.227 0.704
-20.546 -7.27 0.705
-20.545 -7.343 0.705
-15.828 -5.707 0.591
-15.746 -5.733 0.59
-15.689 -5.768 0.589
-15.663 -5.815 0.589
-15.641 -5.834 0.588
-15.656 -5.896 0.589
-15.662 -5.954 0.59
-15.917 -6.109 0.597
-21.633 -8.391 0.737
-21.782 -8.528 0.741
-21.853 -8.675 0.744
-21.742 -8.71 0.742
-21.309 -8.614 0.732
-21.126 -8.617 0.728
-20.916 -8.608 0.723
-21.134 -8.776 0.729
-16.729 -7.002 0.621
-20.387 -8.615 0.712
-21.133 -8.971 0.731
-20.912 -8.954 0.726
-20.55 -8.875 0.718
-20.937 -9.121 0.728
-20.803 -9.219 0.727
-23.14 -10.345 0.786
-20.413 -9.16 0.718
-20.712 -9.373 0.726
-20.529 -9.368 0.722
-21.695 -9.984 0.752
-20.675 -9.593 0.727
-21.917 -10.255 0.759
-20.938 -9.875 0.736
-20.615 -9.762 0.728
-20.57 -9.82 0.727
-20.204 -9.723 0.719
-20.255 -9.826 0.721
-19.453 -9.512 0.701
-19.432 -9.577 0.702
-20.066 -9.969 0.719
-20.113 -10.032 0.72
-19.951 -10.029 0.717
-19.831 -10.125 0.715
-20.041 -10.312 0.722
-20.138 -10.443 0.725
-20.261 -10.547 0.729
-20.352 -10.676 0.732
-20.152 -10.652 0.727
-19.727 -10.506 0.717
-19.824 -10.638 0.721
-18.873 -10.203 0.697
-18.969 -10.332 0.7
-19.116 -10.451 0.704
-19.169 -10.559 0.707
-18.641 -10.344 0.694
-18.685 -10.445 0.696
-18.643 -10.499 0.696
-18.492 -10.49 0.692
-18.32 -10.469 0.689
-16.793 -9.628 0.649
-23.371 -13.51 0.823
-21.925 -12.764 0.786
-16.701 -9.786 0.649
-15.796 -9.321 0.626
-15.717 -9.341 0.625
-16.346 -9.785 0.642
-16.524 -9.928 0.647
-17.773 -10.757 0.681
-17.928 -10.928 0.686
-21.451 -13.174 0.782
-16.267 -10.053 0.644
-16.175 -10.137 0.643
-16.15 -10.157 0.643
-21.852 -13.85 0.798
-15.919 -10.152 0.638
-15.898 -10.209 0.639
-15.444 -9.985 0.627
-15.48 -10.078 0.629
-15.431 -10.115 0.629
-15.4 -10.129 0.628
-15.394 -10.194 0.629
-9.387 -6.289 0.466
-9.375 -6.324 0.466
-19.241 -13.101 0.738
-9.319 -6.372 0.465
-9.302 -6.382 0.465
-14.66 -10.144 0.614
-9.242 -6.427 0.465
-9.165 -6.415 0.463
-9.154 -6.451 0.463
-9.155 -6.495 0.464
-9.115 -6.51 0.463
-9.762 -6.997 0.482
-9.14 -6.592 0.465
-9.712 -7.054 0.482
-9.689 -7.084 0.482
-9.683 -7.126 0.482
-9.686 -7.176 0.483
-9.706 -7.214 0.484
-8.986 -6.72 0.464
-8.952 -6.739 0.463
-8.964 -6.793 0.464
-8.932 -6.812 0.464
-8.905 -6.837 0.464
-8.96 -6.923 0.466
-9.446 -7.324 0.481
-8.715 -6.799 0.46
-9.228 -7.249 0.476
-8.896 -7.031 0.467
-8.861 -7.049 0.466
-8.837 -7.076 0.466
-8.851 -7.133 0.467
-9.382 -7.611 0.483
-8.729 -7.102 0.465
-8.622 -7.06 0.462
-9.047 -7.458 0.475
-9.065 -7.521 0.477
-9.429 -7.874 0.488
-9.408 -7.906 0.488
-9.099 -7.67 0.479
-9.119 -7.737 0.481
-9.02 -7.701 0.478
-9.429 -8.103 0.491
-18.488 -16.023 0.765
-8.612 -7.493 0.468
-8.485 -7.429 0.465
-17.752 -15.63 0.747
-17.587 -15.583 0.743
-17.905 -15.966 0.755
-17.99 -16.144 0.759
-17.999 -16.254 0.761
-17.887 -16.255 0.759
-17.761 -16.242 0.756
-17.778 -16.309 0.758
-17.622 -16.269 0.755
-8.289 -7.731 0.466
-7.91 -7.422 0.455
-8.236 -7.779 0.466
-8.2 -7.794 0.466
-16.612 -15.875 0.732
-16.65 -16.012 0.734
-7.679 -7.412 0.451
-16.797 -16.461 0.744
-16.742 -16.511 0.744
-12.118 -12.053 0.598
-12.037 -12.049 0.596
-11.926 -12.013 0.594
-30.619 -31.094 1.202
-9.579 -9.764 0.52
-12.067 -12.387 0.602
-11.451 -11.826 0.583
-11.454 -11.868 0.584
-11.411 -11.898 0.584
-11.161 -11.709 0.577
-12.108 -12.786 0.609
-11.336 -12.044 0.585
-8.865 -9.471 0.504
-8.906 -9.575 0.506
-8.846 -9.54 0.505
-8.753 -9.499 0.502
-8.587 -9.377 0.498
-8.561 -9.408 0.498
-8.477 -9.374 0.496
-8.473 -9.429 0.497
-7.722 -8.644 0.472
-7.695 -8.642 0.472
-8.252 -9.329 0.492
-7.486 -8.514 0.466
-7.502 -8.585 0.468
-7.616 -8.772 0.473
-7.916 -9.178 0.484
-7.546 -8.803 0.472
-7.381 -8.637 0.467
-8.073 -9.511 0.492
-10.931 -12.975 0.595
-11.021 -13.251 0.601
-10.808 -13.077 0.595
-6.377 -7.749 0.437
-6.929 -8.45 0.457
-6.917 -8.49 0.458
-6.898 -8.521 0.458
-7.378 -9.176 0.476
-7.796 -9.761 0.493
-6.191 -7.793 0.435
-6.205 -7.836 0.436
-6.122 -7.782 0.434
-7.657 -9.805 0.492
-6.011 -7.739 0.431
-7.555 -9.801 0.49
-6.046 -7.887 0.435
-6.379 -8.377 0.448
-5.951 -7.838 0.432
-6.226 -8.257 0.444
-6.326 -8.445 0.449
-6.249 -8.397 0.447
-6.318 -8.545 0.45
-6.278 -8.548 0.45
-6.292 -8.624 0.451
-6.202 -8.528 0.448
-7.034 -9.743 0.482
-7 -9.76 0.482
-15.854 -22.309 0.832
-5.451 -7.743 0.424
-5.392 -7.711 0.423
-5.298 -7.601 0.419
-5.257 -7.593 0.419
-5.252 -7.638 0.419
-5.271 -7.717 0.421
-5.198 -7.661 0.419
-5.147 -7.637 0.418
-5.205 -7.776 0.421
-5.127 -7.686 0.419
-5.426 -8.193 0.432
-5.068 -7.702 0.418
-5.014 -7.672 0.417
-4.898 -7.545 0.413
-5.082 -7.94 0.423
-9.582 -15.064 0.615
-5.666 -8.951 0.45
-4.892 -7.775 0.417
-4.787 -7.661 0.414
-4.805 -7.744 0.416
-4.843 -7.861 0.419
-4.753 -7.769 0.416
-4.739 -7.773 0.416
-4.702 -7.767 0.415
-4.619 -7.684 0.412
-4.639 -7.773 0.414
-4.628 -7.81 0.415
-4.57 -7.795 0.414
-4.589 -7.885 0.416
-4.513 -7.81 0.414
-4.51 -7.862 0.415
-4.455 -7.824 0.413
-5.488 -9.721 0.463
-4.412 -7.862 0.414
-4.362 -7.801 0.412
-4.455 -8.028 0.417
-7.684 -14.095 0.574
-5.082 -9.374 0.451
-9.321 -17.368 0.657
-9.26 -17.386 0.657
-9.266 -17.463 0.659
-9.23 -17.529 0.659
-4.968 -9.48 0.452
-4.93 -9.48 0.452
-9.323 -18.119 0.672
-8.951 -17.53 0.657
-8.817 -17.401 0.653
-9.016 -17.865 0.664
-8.964 -17.902 0.664
-8.926 -17.966 0.665
-8.874 -18.003 0.665
-8.822 -18.041 0.666
-8.819 -18.18 0.668
-6.109 -12.677 0.529
-18.577 -38.827 1.189
-18.456 -38.887 1.189
-19.737 -41.931 1.264
-10.089 -21.58 0.751
-10.131 -21.849 0.757
-8.432 -18.326 0.668
-7.853 -17.133 0.638
-7.236 -16.049 0.609
-13.427 -30.087 0.959
-7.594 -17.28 0.638
-10.495 -24.112 0.807
-8.903 -20.533 0.718
-14.375 -33.483 1.038
-7.422 -17.407 0.639
-7.369 -17.434 0.639
-6.636 -15.831 0.599
-6.582 -15.843 0.599
-6.604 -16.037 0.603
-6.51 -15.879 0.599
-3.383 -8.294 0.412
-20.328 -50.638 1.451
-7.922 -19.873 0.696
-4.695 -12.08 0.503
-4.668 -12.067 0.503
-4.573 -11.932 0.499
-7.006 -18.492 0.659
-6.935 -18.478 0.658
-6.87 -18.483 0.657
-6.812 -18.505 0.657
-6.755 -18.53 0.657
-6.741 -18.582 0.658
-6.78 -18.876 0.665
-13.602 -38.709 1.143
-12.259 -35.233 1.058
-4.376 -12.655 0.513
-11.589 -33.991 1.026
-6.669 -19.833 0.685
-11.227 -33.797 1.019
-9.725 -29.89 0.924
-9.613 -29.865 0.923
-6.456 -20.139 0.69
-6.385 -20.132 0.689
-4.196 -13.346 0.527
-4.174 -13.424 0.528
-3.89 -12.648 0.51
-3.872 -12.731 0.511
-4.101 -13.643 0.533
-3.736 -12.494 0.505
-4.004 -13.551 0.53
-3.809 -13.039 0.518
-3.831 -13.429 0.526
-3.719 -13.194 0.52
-3.92 -14.166 0.543
-3.878 -14.188 0.543
-3.887 -14.403 0.548
-4.099 -15.387 0.571
-4.114 -15.642 0.577
-6.653 -25.687 0.813
-8.899 -34.844 1.027
-5.999 -23.927 0.77
-5.905 -23.868 0.768
-5.818 -23.838 0.767
-5.749 -23.879 0.768
-3.685 -15.483 0.571
-3.637 -15.497 0.571
-3.765 -16.161 0.586
-2.749 -12.113 0.491
-3.563 -16.213 0.586
-3.575 -16.773 0.599
-3.416 -16.404 0.59
-3.397 -16.573 0.594
-3.312 -16.419 0.59
-2.935 -15.026 0.557
-2.914 -15.042 0.557
-1.79 -9.346 0.425
-1.757 -9.335 0.425
-1.735 -9.376 0.425
-5.201 -30.007 0.902
-2.601 -15.069 0.557
-3.048 -18.027 0.625
-2.916 -17.579 0.614
-2.893 -17.79 0.619
-2.811 -17.633 0.615
-2.436 -15.573 0.567
-2.346 -15.473 0.565
-1.875 -12.606 0.499
-1.828 -12.558 0.497
-1.45 -10.15 0.442
-1.751 -12.583 0.498
-1.718 -12.636 0.499
-2.564 -19.418 0.654
-2.511 -19.254 0.651
-3.618 -28.534 0.863
-3.561 -28.813 0.87
-3.482 -28.919 0.872
-2.154 -18.293 0.628
-2.005 -17.994 0.621
-1.882 -17.13 0.601
-1.844 -17.283 0.604
-3.922 -38.185 1.083
-3.019 -30.278 0.901
-3.095 -32.083 0.942
-1.607 -17.387 0.606
-1.45 -16.837 0.593
-0.761 -9.389 0.423
-0.723 -9.275 0.42
-2.646 -36.422 1.04
-2.565 -36.08 1.032
-0.675 -9.662 0.429
-1.157 -17.651 0.611
-0.604 -9.484 0.425
-0.935 -16.641 0.588
-0.895 -16.89 0.593
-1.897 -37.528 1.064
-2.089 -44.161 1.215
-0.613 -13.468 0.515
-0.394 -9.109 0.416
-0.365 -9.094 0.416
-0.337 -9.107 0.416
-0.308 -9.112 0.416
-0.304 -9.455 0.424
-0.855 -31.552 0.927
-0.359 -14.378 0.536
-0.654 -31.419 0.924
-0.559 -31.637 0.929
-0.404 -27.604 0.837
-0.468 -36.443 1.038
-0.233 -22.997 0.732
-0.062 -13.492 0.516
-0.02 -13.682 0.52
0.022 -13.476 0.515
0.322 -51.69 1.386
0.496 -62.954 1.642
0.138 -9.252 0.419
0.165 -9.172 0.417
0.295 -11.811 0.477
0.313 -11.799 0.477
0.32 -10.842 0.455
0.351 -10.775 0.454
0.388 -10.848 0.456
0.422 -10.855 0.456
0.668 -15.614 0.564
0.497 -10.99 0.459
0.523 -11.169 0.463
1.315 -25.634 0.793
1.395 -25.609 0.792
0.627 -11.141 0.462
0.571 -9.663 0.429
0.851 -13.508 0.517
0.888 -13.419 0.515
0.909 -13.418 0.515
0.627 -8.968 0.413
1.014 -13.683 0.521
1.097 -13.648 0.52
1.145 -13.705 0.521
1.166 -13.699 0.521
2.654 -29.712 0.888
2.748 -29.707 0.888
2.81 -29.368 0.88
4.437 -44.753 1.233
4.571 -44.679 1.231
4.716 -44.702 1.232
3.818 -34.683 1.003
3.282 -29.013 0.873
3.357 -28.868 0.87
3.461 -28.962 0.873
1.768 -14.156 0.533
2.74 -21.027 0.691
2.831 -21.202 0.695
6.83 -48.567 1.325
6.012 -41.825 1.171
6.137 -41.764 1.17
2.117 -14.363 0.539
3.122 -20.66 0.684
3.325 -21.098 0.695
3.289 -20.458 0.68
3.358 -20.475 0.681
3.39 -20.472 0.681
1.322 -7.926 0.391
1.342 -7.895 0.391
1.365 -7.877 0.39
1.384 -7.845 0.39
1.356 -7.549 0.383
1.431 -7.82 0.389
1.456 -7.752 0.388
3.913 -20.777 0.69
1.417 -7.42 0.38
1.438 -7.406 0.38
1.462 -7.405 0.38
2.812 -13.895 0.531
5.964 -28.865 0.88
2.196 -10.459 0.452
2.93 -13.703 0.527
3.022 -13.92 0.533
1.627 -7.436 0.382
1.641 -7.39 0.381
1.664 -7.385 0.381
3.141 -13.736 0.529
3.178 -13.699 0.529
2.526 -10.763 0.46
2.501 -10.51 0.454
1.949 -8.103 0.398
1.975 -8.098 0.398
2.008 -8.123 0.399
1.986 -7.98 0.396
6.269 -24.636 0.787
2.098 -8.101 0.399
2.122 -8.092 0.399
1.931 -7.278 0.38
1.942 -7.273 0.38
2.003 -7.408 0.383
2.018 -7.373 0.382
2.023 -7.299 0.381
2.047 -7.296 0.381
2.112 -7.436 0.384
7.211 -24.871 0.798
6.71 -22.884 0.751
6.743 -22.864 0.751
7.349 -24.624 0.794
10.748 -35.564 1.054
2.432 -7.936 0.397
2.336 -7.544 0.388
2.343 -7.525 0.388
2.368 -7.52 0.388
2.5 -7.851 0.396
2.496 -7.756 0.394
3.174 -9.735 0.441
3.269 -9.918 0.446
3.248 -9.753 0.442
2.525 -7.559 0.39
2.486 -7.37 0.385
2.588 -7.591 0.391
2.532 -7.352 0.385
2.635 -7.572 0.391
3.203 -9.094 0.428
2.831 -7.97 0.401
2.825 -7.913 0.4
7.331 -20.212 0.698
7.394 -20.187 0.698
7.466 -20.188 0.699
7.539 -20.191 0.699
3.636 -9.683 0.444
3.692 -9.786 0.446
4.025 -10.56 0.466
3.739 -9.723 0.446
3.726 -9.6 0.443
3.859 -9.85 0.449
3.889 -9.836 0.449
3.897 -9.766 0.448
3.909 -9.751 0.448
3.933 -9.724 0.447
4.388 -10.743 0.473
4.462 -10.827 0.475
4.49 -10.799 0.475
4.678 -11.052 0.482
11.081 -25.976 0.851
11.166 -25.948 0.852
11.259 -25.941 0.852
4.449 -10.116 0.46
4.227 -9.532 0.446
16.268 -36.354 1.115
3.614 -7.925 0.407
3.712 -8.071 0.411
3.68 -7.936 0.408
3.755 -8.031 0.41
3.865 -8.231 0.415
14.13 -29.691 0.957
14.242 -29.686 0.958
12.084 -24.995 0.841
13.732 -28.169 0.922
5.384 -10.906 0.485
14.004 -28.164 0.925
14.174 -28.283 0.929
3.611 -7.136 0.39
3.61 -7.079 0.389
5.097 -9.896 0.462
5.171 -9.963 0.464
14.092 -26.948 0.901
14.353 -27.238 0.909
14.561 -27.424 0.915
14.451 -27.011 0.906
15.352 -28.477 0.945
14.561 -26.611 0.899
14.609 -26.6 0.899
20.618 -37.242 1.178
16.722 -29.992 0.99
20.815 -37.046 1.176
15.984 -28.253 0.948
14.762 -25.907 0.887
13.218 -23.117 0.815
15.87 -27.346 0.928
15.934 -27.258 0.927
9.079 -15.333 0.614
9.126 -15.303 0.614
9.163 -15.309 0.615
8.899 -14.765 0.601
8.93 -14.711 0.6
8.965 -14.664 0.6
9.133 -14.833 0.605
9.077 -14.64 0.601
18.146 -28.915 0.986
18.359 -29.05 0.991
18.249 -28.677 0.982
18.327 -28.601 0.982
11.633 -18.046 0.697
11.689 -18.009 0.697
13.722 -20.916 0.778
9.489 -14.283 0.599
9.519 -14.231 0.598
8.376 -12.444 0.55
9.603 -14.163 0.598
9.63 -14.154 0.598
9.652 -14.093 0.597
12.513 -18.134 0.71
12.54 -18.052 0.709
12.666 -18.111 0.712
19.258 -27.33 0.97
34.433 -48.505 1.563
30.202 -42.409 1.394
8.976 -12.388 0.557
9.013 -12.356 0.557
8.96 -12.204 0.553
9.043 -12.195 0.554
9.068 -12.149 0.554
9.108 -12.124 0.554
9.252 -12.234 0.558
9.183 -12.065 0.554
20.931 -27.266 0.991
19.647 -25.43 0.94
42.604 -54.918 1.791
21.815 -27.959 1.016
6.591 -8.423 0.452
20.526 -25.971 0.962
17.682 -22.235 0.855
17.735 -22.159 0.855
5.722 -7.132 0.417
5.757 -7.152 0.417
5.792 -7.15 0.418
5.873 -7.202 0.42
5.915 -7.207 0.421
5.939 -7.19 0.421
5.981 -7.194 0.421
6.044 -7.248 0.423
6.039 -7.195 0.422
6.104 -7.226 0.424
6.167 -7.254 0.425
6.112 -7.144 0.422
7.055 -8.189 0.454
6.286 -7.255 0.427
6.265 -7.207 0.426
6.323 -7.228 0.427
7.038 -7.99 0.451
7.065 -7.97 0.451
7.058 -7.912 0.45
7.097 -7.905 0.45
7.978 -8.826 0.479
7.989 -8.81 0.479
8.05 -8.822 0.48
8.105 -8.826 0.481
7.773 -8.414 0.469
12.491 -13.412 0.626
12.522 -13.361 0.625
7.284 -7.739 0.45
7.246 -7.675 0.449
7.291 -7.674 0.449
7.293 -7.628 0.449
7.3 -7.588 0.448
7.339 -7.58 0.449
7.412 -7.607 0.45
7.505 -7.654 0.452
7.588 -7.715 0.455
7.649 -7.727 0.456
7.365 -7.395 0.446
7.332 -7.316 0.444
7.317 -7.256 0.443
7.54 -7.429 0.449
7.532 -7.398 0.449
7.379 -7.203 0.443
7.486 -7.261 0.446
7.624 -7.349 0.449
7.919 -7.584 0.458
7.1 -6.76 0.432
7.134 -6.75 0.432
7.232 -6.821 0.435
7.357 -6.895 0.438
7.226 -6.731 0.433
24.63 -22.712 0.971
24.88 -22.797 0.977
25.378 -23.107 0.99
