ply
format ascii 1.0
comment Created by Open3D
element vertex 1701
property double x
property double y
property double z
end_header
0.486666 -0.558483 -0.369896
2.83256 -2.46694 -1.95912
3.01871 -2.61997 -1.97191
3.21484 -2.78137 -1.9803
3.43258 -2.96066 -1.98929
3.65687 -3.14439 -1.9885
3.96205 -3.39534 -2.01439
4.29421 -3.66873 -2.0354
4.66633 -3.97374 -2.05346
5.02003 -4.26539 -2.04071
5.00307 -4.25425 -1.87092
5.03436 -4.28114 -1.7204
6.47197 -5.46075 -1.99952
5.08758 -4.33027 -1.41553
7.89451 -6.63404 -1.94109
8.08575 -6.73172 -1.72944
8.13682 -6.77769 -1.49162
8.16039 -6.79898 -1.24598
8.17962 -6.81917 -1.0017
8.20066 -6.84078 -0.757338
8.23708 -6.87259 -0.513245
-0.000294732 -0.162433 -0.0171736
7.92855 -6.62995 -0.0177516
-0.000294732 -0.162433 -0.0171736
-0.000294732 -0.162433 -0.0171736
-0.000294732 -0.162433 -0.0171736
-0.000294732 -0.162433 -0.0171736
7.93261 -6.65056 1.1807
-0.000294732 -0.162433 -0.0171736
-0.000294732 -0.162433 -0.0171736
-0.000294732 -0.162433 -0.0171736
0.471289 -0.550021 -0.379334
0.485702 -0.562097 -0.370833
2.82153 -2.48553 -1.96094
3.00546 -2.6386 -1.97275
3.20626 -2.8058 -1.98452
3.41779 -2.98116 -1.99005
3.63917 -3.1657 -1.98844
3.94851 -3.42317 -2.01724
4.26963 -3.68946 -2.03329
4.64217 -3.99976 -2.05274
5.01612 -4.3117 -2.04897
5.00013 -4.29977 -1.87857
5.02477 -4.32296 -1.7254
6.45029 -5.505 -2.00221
5.0635 -4.35919 -1.41547
7.89036 -6.70663 -1.94915
7.97653 -6.72165 -1.71444
8.02366 -6.76249 -1.47789
8.05024 -6.78885 -1.23522
8.06615 -6.80643 -0.992681
8.09429 -6.83171 -0.751107
8.12463 -6.86122 -0.508769
7.9409 -6.71415 -0.256696
7.9235 -6.7019 -0.0176705
-0.00028769 -0.16213 -0.0171411
-0.00028769 -0.16213 -0.0171411
-0.00028769 -0.16213 -0.0171411
-0.00028769 -0.16213 -0.0171411
-0.00028769 -0.16213 -0.0171411
-0.00028769 -0.16213 -0.0171411
-0.00028769 -0.16213 -0.0171411
-0.00028769 -0.16213 -0.0171411
0.471766 -0.554602 -0.381337
0.492732 -0.572341 -0.37765
2.80946 -2.50255 -1.96183
2.99115 -2.65552 -1.9727
3.18165 -2.81519 -1.97847
3.4043 -3.00275 -1.99161
3.62467 -3.18863 -1.98992
3.93308 -3.44723 -2.01864
4.25212 -3.71608 -2.0346
4.62944 -4.03265 -2.05653
5.01341 -4.35653 -2.05726
4.99541 -4.34421 -1.88567
5.02218 -4.36799 -1.73242
6.42839 -5.54927 -2.00491
5.04445 -4.39084 -1.41665
7.88539 -6.77683 -1.95685
7.91278 -6.74569 -1.70885
7.9246 -6.75757 -1.46667
7.94321 -6.77751 -1.22469
7.95735 -6.79376 -0.984044
7.98526 -6.81914 -0.744603
8.0199 -6.85255 -0.504676
8.06377 -6.89128 -0.261451
7.91486 -6.77145 -0.0175893
-0.000301956 -0.161692 -0.0170949
-0.000301956 -0.161692 -0.0170949
-0.000301956 -0.161692 -0.0170949
-0.000301956 -0.161692 -0.0170949
7.91976 -6.79317 1.19038
-0.000301956 -0.161692 -0.0170949
-0.000301956 -0.161692 -0.0170949
-0.000301956 -0.161692 -0.0170949
0.466933 -0.554665 -0.379256
0.490455 -0.574735 -0.37761
2.80045 -2.52126 -1.96459
2.97854 -2.67294 -1.97354
3.17879 -2.84362 -1.98612
3.39346 -3.02665 -1.9948
3.60902 -3.2096 -1.99063
3.91123 -3.467 -2.01711
4.2301 -3.73891 -2.03385
4.60272 -4.0552 -2.05454
5.00083 -4.39481 -2.06195
4.99173 -4.38996 -1.89332
5.01263 -4.40902 -1.73742
6.40318 -5.59087 -2.00667
5.03115 -4.43038 -1.4199
7.87289 -6.84606 -1.96344
7.90306 -6.81226 -1.7146
7.91827 -6.82954 -1.47243
7.91526 -6.82913 -1.226
7.90496 -6.82495 -0.982105
7.904 -6.8286 -0.740604
7.90601 -6.83244 -0.499927
7.95458 -6.87794 -0.259228
7.91175 -6.84623 -0.0175039
-0.000245253 -0.161354 -0.0170588
-0.000245253 -0.161354 -0.0170588
-0.000245253 -0.161354 -0.0170588
-0.000245253 -0.161354 -0.0170588
7.91016 -6.86265 1.19489
-0.000245253 -0.161354 -0.0170588
-0.000245253 -0.161354 -0.0170588
-0.000245253 -0.161354 -0.0170588
0.460637 -0.553621 -0.376144
0.481376 -0.571652 -0.372673
2.78772 -2.53861 -1.96547
2.96492 -2.69138 -1.97438
3.16278 -2.86206 -1.98606
3.37691 -3.04579 -1.99475
3.5881 -3.22826 -1.98903
3.89438 -3.49223 -2.01851
4.21943 -3.77143 -2.03857
4.58379 -4.0858 -2.0564
4.99444 -4.44023 -2.06963
4.98773 -4.43579 -1.90097
5.00347 -4.45214 -1.74292
6.37916 -5.63368 -2.00891
5.01096 -4.46285 -1.42109
7.873 -6.92418 -1.97298
7.89649 -6.88683 -1.72164
7.91135 -6.90164 -1.47819
7.90881 -6.90397 -1.23102
7.89555 -6.89724 -0.985737
7.89739 -6.90091 -0.743457
7.89056 -6.89964 -0.501332
7.90395 -6.91555 -0.258813
7.9096 -6.92258 -0.017427
7.91132 -6.92855 0.224296
7.93603 -6.95427 0.469746
-0.00030918 -0.160951 -0.0170163
-0.00030918 -0.160951 -0.0170163
7.9004 -6.93499 1.19962
-0.00030918 -0.160951 -0.0170163
-0.00030918 -0.160951 -0.0170163
-0.00030918 -0.160951 -0.0170163
0.466134 -0.562629 -0.382222
0.485652 -0.579701 -0.377525
2.77398 -2.55421 -1.96541
2.95166 -2.70926 -1.97522
3.1486 -2.88106 -1.98686
3.35886 -3.06366 -1.99388
3.57595 -3.25327 -1.99205
3.87797 -3.51669 -2.0199
4.2 -3.79648 -2.03919
4.56112 -4.11174 -2.05633
4.9812 -4.47852 -2.07432
4.98485 -4.48302 -1.90918
4.99623 -4.49579 -1.74894
6.35045 -5.67246 -2.00975
4.99791 -4.50146 -1.42434
7.86505 -6.99621 -1.98068
7.88898 -6.95895 -1.72838
7.89639 -6.96743 -1.48256
7.90291 -6.97768 -1.23605
7.88977 -6.97081 -0.989734
7.88855 -6.97198 -0.746162
7.88641 -6.97464 -0.503391
7.89668 -6.98809 -0.259707
7.89771 -6.99115 -0.017336
-0.000252477 -0.160613 -0.0169801
7.93147 -7.02955 0.471976
-0.000252477 -0.160613 -0.0169801
7.92199 -7.02809 0.960822
7.89273 -7.00735 1.20458
-0.000252477 -0.160613 -0.0169801
-0.000252477 -0.160613 -0.0169801
-0.000252477 -0.160613 -0.0169801
0.457403 -0.559318 -0.377082
0.484446 -0.583186 -0.378454
2.76279 -2.57217 -1.96724
2.93697 -2.72585 -1.97516
3.13424 -2.90004 -1.98766
3.33465 -3.07709 -1.98974
3.56084 -3.27588 -1.99353
3.86416 -3.54351 -2.02275
4.17975 -3.82227 -2.03981
4.54971 -4.14762 -2.06139
4.96204 -4.51181 -2.07664
4.97929 -4.52982 -1.91682
4.99149 -4.54191 -1.75595
6.32638 -5.71737 -2.01243
4.98526 -4.54228 -1.42801
7.85534 -7.06967 -1.98837
7.88242 -7.03247 -1.73543
7.89614 -7.04904 -1.49
7.89491 -7.05005 -1.24082
7.88189 -7.04333 -0.993557
7.87954 -7.04587 -0.749005
7.88009 -7.0485 -0.505355
7.8918 -7.06343 -0.260697
7.89012 -7.06658 -0.0172582
7.9245 -7.09884 0.227296
7.97441 -7.14718 0.477182
-0.000266743 -0.160175 -0.016934
7.94245 -7.12848 0.968521
-0.000266743 -0.160175 -0.016934
-0.000266743 -0.160175 -0.016934
7.91317 -7.11432 1.71356
7.91794 -7.12071 1.96907
0.461459 -0.567352 -0.382142
0.484576 -0.588026 -0.380374
2.74843 -2.58807 -1.96717
2.92032 -2.74168 -1.97421
3.1211 -2.92001 -1.98931
3.32056 -3.09837 -1.99132
3.54091 -3.29541 -1.9927
3.83344 -3.55547 -2.01687
4.1628 -3.84962 -2.0418
4.52667 -4.17337 -2.06132
4.94117 -4.54381 -2.07836
4.97418 -4.57599 -1.92448
4.98356 -4.58575 -1.76197
6.29721 -5.75603 -2.01329
4.98115 -4.58793 -1.43377
7.85335 -7.14571 -1.99754
7.87256 -7.10613 -1.74215
7.88159 -7.11633 -1.49465
7.88513 -7.12414 -1.24562
7.87817 -7.1226 -0.998117
7.87863 -7.12518 -0.752553
7.88098 -7.13191 -0.507885
7.88934 -7.14154 -0.261774
7.88912 -7.14603 -0.0171747
-0.0002597 -0.159872 -0.0169016
-0.0002597 -0.159872 -0.0169016
-0.0002597 -0.159872 -0.0169016
7.94804 -7.21206 0.974173
-0.0002597 -0.159872 -0.0169016
-0.0002597 -0.159872 -0.0169016
-0.0002597 -0.159872 -0.0169016
-0.0002597 -0.159872 -0.0169016
0.451443 -0.562655 -0.375976
0.482178 -0.590356 -0.380332
2.73748 -2.6054 -1.969
2.90983 -2.76116 -1.97685
3.10648 -2.93873 -1.9901
3.30764 -3.12068 -1.99369
3.53159 -3.32215 -1.99726
3.82075 -3.58337 -2.02044
4.14289 -3.87442 -2.04242
4.5006 -4.19646 -2.05997
4.91584 -4.57181 -2.07829
4.97291 -4.62602 -1.93378
4.97809 -4.6321 -1.76899
6.26053 -5.78795 -2.01183
4.97516 -4.63538 -1.43953
7.84093 -7.21814 -2.00486
7.86599 -7.17859 -1.7492
7.87824 -7.19419 -1.50152
7.8846 -7.20203 -1.25156
7.87183 -7.19537 -1.00213
7.86958 -7.19806 -0.755403
7.87016 -7.20073 -0.509569
7.88025 -7.21448 -0.262662
-0.000273967 -0.159434 -0.0168554
-0.000273967 -0.159434 -0.0168554
-0.000273967 -0.159434 -0.0168554
-0.000273967 -0.159434 -0.0168554
-0.000273967 -0.159434 -0.0168554
-0.000273967 -0.159434 -0.0168554
-0.000273967 -0.159434 -0.0168554
-0.000273967 -0.159434 -0.0168554
-0.000273967 -0.159434 -0.0168554
0.455449 -0.570725 -0.381035
0.467995 -0.58229 -0.371469
2.72027 -2.61886 -1.96707
2.89703 -2.78043 -1.97859
3.09664 -2.96286 -1.99433
3.29194 -3.14062 -1.99445
3.51414 -3.34396 -1.99798
3.79484 -3.60062 -2.01747
4.12006 -3.89662 -2.04167
4.48499 -4.23036 -2.06375
4.88672 -4.59798 -2.07703
4.96992 -4.67494 -1.94253
4.97864 -4.68593 -1.77855
6.23086 -5.82622 -2.01268
4.97967 -4.69128 -1.44819
7.83062 -7.29066 -2.01256
7.85935 -7.25647 -1.75689
7.86993 -7.26831 -1.50756
7.8736 -7.2764 -1.25635
7.86238 -7.27096 -1.00612
7.86438 -7.27505 -0.758669
7.8578 -7.27382 -0.511352
7.87074 -7.29028 -0.263596
7.89556 -7.31499 -0.0170101
-0.000288233 -0.158997 -0.0168093
7.91032 -7.33793 0.481162
-0.000288233 -0.158997 -0.0168093
7.9166 -7.35068 0.980845
-0.000288233 -0.158997 -0.0168093
-0.000288233 -0.158997 -0.0168093
-0.000288233 -0.158997 -0.0168093
-0.000288233 -0.158997 -0.0168093
0.445483 -0.565993 -0.37487
0.46679 -0.585775 -0.372406
2.71389 -2.64127 -1.97265
2.8766 -2.79185 -1.97494
3.07558 -2.97487 -1.99085
3.27199 -3.15663 -1.99276
3.50118 -3.36879 -2.001
3.77972 -3.62514 -2.01959
4.10114 -3.92244 -2.04297
4.46079 -4.25369 -2.06304
4.86603 -4.62865 -2.07874
4.96363 -4.72135 -1.95018
4.97323 -4.73163 -1.78557
6.19949 -5.86289 -2.01306
4.96865 -4.73181 -1.45227
7.82969 -7.3698 -2.02247
7.85188 -7.33196 -1.76427
7.86098 -7.34259 -1.5136
7.86618 -7.35207 -1.2616
7.8565 -7.34803 -1.0105
7.86002 -7.35353 -0.762071
7.85206 -7.35101 -0.513506
7.86623 -7.36626 -0.264634
7.90129 -7.40317 -0.0169192
-0.00028119 -0.158694 -0.0167768
-0.00028119 -0.158694 -0.0167768
-0.00028119 -0.158694 -0.0167768
7.93048 -7.44427 0.987802
-0.00028119 -0.158694 -0.0167768
-0.00028119 -0.158694 -0.0167768
7.88854 -7.4176 1.74437
-0.00028119 -0.158694 -0.0167768
0.444405 -0.569231 -0.375844
0.463178 -0.586814 -0.371383
2.70086 -2.65778 -1.97354
2.86188 -2.80756 -1.97489
3.06196 -2.99458 -1.9925
3.25466 -3.17511 -1.99271
3.48261 -3.38847 -2.00094
3.75964 -3.6465 -2.01953
4.08498 -3.95082 -2.04565
4.44054 -4.28358 -2.06489
4.83665 -4.65456 -2.07749
4.95978 -4.77043 -1.95893
4.97151 -4.78442 -1.79462
6.16981 -5.90322 -2.01437
4.9635 -4.7831 -1.45886
7.82266 -7.44931 -2.03164
7.8479 -7.40881 -1.77229
7.85584 -7.42098 -1.52048
7.86375 -7.43058 -1.26755
6.30208 -5.99033 -0.81793
7.8492 -7.42677 -0.764914
7.8442 -7.42702 -0.515568
7.85825 -7.44231 -0.265614
7.90346 -7.48909 -0.0168429
7.89593 -7.48702 0.233279
-0.000295456 -0.158256 -0.0167306
-0.000295456 -0.158256 -0.0167306
-0.000295456 -0.158256 -0.0167306
-0.000295456 -0.158256 -0.0167306
-0.000295456 -0.158256 -0.0167306
-0.000295456 -0.158256 -0.0167306
-0.000295456 -0.158256 -0.0167306
0.448212 -0.577444 -0.380902
0.456712 -0.585728 -0.368406
2.68594 -2.67332 -1.97347
2.85473 -2.83317 -1.98111
3.04252 -3.00994 -1.99073
3.23937 -3.19649 -1.99427
3.46878 -3.41378 -2.00396
3.74431 -3.67351 -2.02238
4.06653 -3.97849 -2.04764
4.41807 -4.31007 -2.06547
4.81205 -4.68333 -2.07802
4.95332 -4.81918 -1.96713
4.96305 -4.8298 -1.80113
6.0318 -5.83963 -1.98018
4.96182 -4.83321 -1.46587
7.81628 -7.52761 -2.04082
7.83653 -7.48725 -1.77966
7.84726 -7.49962 -1.52707
7.85401 -7.51076 -1.27303
6.23866 -6.00247 -0.81432
7.84224 -7.50697 -0.768316
7.83591 -7.5059 -0.51772
7.84842 -7.52 -0.266603
-0.000238754 -0.157917 -0.0166945
-0.000238754 -0.157917 -0.0166945
-0.000238754 -0.157917 -0.0166945
-0.000238754 -0.157917 -0.0166945
-0.000238754 -0.157917 -0.0166945
-0.000238754 -0.157917 -0.0166945
-0.000238754 -0.157917 -0.0166945
-0.000238754 -0.157917 -0.0166945
-0.000238754 -0.157917 -0.0166945
0.442073 -0.575986 -0.377796
0.454343 -0.587887 -0.368362
2.67439 -2.69034 -1.9753
2.83844 -2.84739 -1.98015
3.02596 -3.02696 -1.99067
3.22235 -3.21415 -1.99421
3.45186 -3.43401 -2.00467
3.72942 -3.69975 -2.02523
4.04235 -3.99812 -2.0462
4.39546 -4.33635 -2.06604
4.79001 -4.71452 -2.07974
4.95086 -4.86901 -1.97644
4.95986 -4.88068 -1.80968
6.00556 -5.8782 -1.98194
4.95885 -4.88424 -1.47286
7.81069 -7.60742 -2.05036
7.83421 -7.56721 -1.78834
7.84494 -7.5797 -1.5345
6.20288 -6.03005 -1.01408
6.17701 -6.00942 -0.810525
7.83433 -7.58185 -0.771441
7.83097 -7.58357 -0.519966
7.84208 -7.59909 -0.267676
-0.00025302 -0.15748 -0.0166484
-0.00025302 -0.15748 -0.0166484
7.88025 -7.64759 0.490349
-0.00025302 -0.15748 -0.0166484
7.87563 -7.65053 0.997529
-0.00025302 -0.15748 -0.0166484
-0.00025302 -0.15748 -0.0166484
-0.00025302 -0.15748 -0.0166484
-0.00025302 -0.15748 -0.0166484
0.434691 -0.573412 -0.373675
0.451874 -0.590117 -0.368319
0.485597 -0.622588 -0.374351
2.82161 -2.86213 -1.9792
3.01205 -3.04659 -1.99233
3.20412 -3.23283 -1.99415
3.43693 -3.45731 -2.00693
3.70225 -3.71436 -2.02153
4.02493 -4.02695 -2.04888
4.3782 -4.36789 -2.06919
4.76923 -4.747 -2.08206
4.94772 -4.92184 -1.98629
4.95631 -4.93168 -1.81822
6.09345 -6.03088 -2.02199
4.95322 -4.93497 -1.47945
6.06082 -6.00721 -1.6037
7.8213 -7.64049 -1.79506
7.83226 -7.65591 -1.54054
6.14306 -6.04057 -1.00983
6.13745 -6.03913 -0.809716
7.82467 -7.661 -0.774703
7.82256 -7.66132 -0.522112
7.83367 -7.67696 -0.2687
-0.000245977 -0.157177 -0.0166159
-0.000245977 -0.157177 -0.0166159
-0.000245977 -0.157177 -0.0166159
-0.000245977 -0.157177 -0.0166159
-0.000245977 -0.157177 -0.0166159
-0.000245977 -0.157177 -0.0166159
-0.000245977 -0.157177 -0.0166159
-0.000245977 -0.157177 -0.0166159
-0.000245977 -0.157177 -0.0166159
0.429765 -0.57324 -0.371594
0.446728 -0.589944 -0.366312
0.477747 -0.620167 -0.370552
2.80682 -2.87975 -1.98004
2.9922 -3.06148 -1.99056
3.18773 -3.25222 -1.99492
3.41862 -3.47854 -2.00763
3.68506 -3.73977 -2.02364
4.00121 -4.04843 -2.04814
4.35848 -4.39868 -2.07168
4.74734 -4.78013 -2.08437
4.94224 -4.97148 -1.99505
4.94869 -4.98088 -1.82575
5.20813 -5.23543 -1.74018
4.94522 -4.98221 -1.4852
5.99464 -6.01007 -1.59511
7.8136 -7.72209 -1.8034
7.82871 -7.7391 -1.54825
6.1109 -6.0793 -1.01022
6.06953 -6.04311 -0.805358
6.262 -6.23171 -0.626614
7.81517 -7.74345 -0.52445
7.8248 -7.75787 -0.269783
7.8701 -7.80428 -0.0164977
7.84973 -7.78953 0.237706
-0.000260243 -0.156739 -0.0165698
-0.000260243 -0.156739 -0.0165698
-0.000260243 -0.156739 -0.0165698
-0.000260243 -0.156739 -0.0165698
-0.000260243 -0.156739 -0.0165698
-0.000260243 -0.156739 -0.0165698
-0.000260243 -0.156739 -0.0165698
0.437151 -0.584907 -0.379707
0.44426 -0.592174 -0.366273
0.48641 -0.633601 -0.378953
2.79105 -2.89546 -1.97998
2.97929 -3.08211 -1.99307
3.16981 -3.27007 -1.99485
3.4034 -3.50176 -2.00989
3.66302 -3.75929 -2.02286
3.98143 -4.07366 -2.04944
4.33666 -4.426 -2.07289
4.72062 -4.80702 -2.0843
4.93906 -5.02374 -2.0049
4.94692 -5.03471 -1.8353
5.14277 -5.22946 -1.72812
4.9981 -5.09002 -1.50926
5.97067 -6.05387 -1.59763
7.80379 -7.79983 -1.81111
-0.000203541 -0.1564 -0.0165336
6.11072 -6.1475 -1.01572
6.05109 -6.09295 -0.807327
6.19407 -6.23515 -0.623327
7.8098 -7.82578 -0.52688
7.81936 -7.84023 -0.270944
-0.000203541 -0.1564 -0.0165336
-0.000203541 -0.1564 -0.0165336
-0.000203541 -0.1564 -0.0165336
-0.000203541 -0.1564 -0.0165336
7.84709 -7.88777 1.01135
-0.000203541 -0.1564 -0.0165336
-0.000203541 -0.1564 -0.0165336
-0.000203541 -0.1564 -0.0165336
-0.000203541 -0.1564 -0.0165336
0.432275 -0.584698 -0.377632
0.440456 -0.59305 -0.365244
0.493682 -0.646018 -0.386427
2.77528 -2.91117 -1.97993
2.96242 -3.0989 -1.99302
3.15827 -3.29438 -1.99886
3.38799 -3.52481 -2.01214
3.64356 -3.78135 -2.02353
3.96406 -4.1014 -2.05211
4.30934 -4.44786 -2.07155
4.70183 -4.84187 -2.08781
4.9327 -5.07341 -2.01365
4.94203 -5.08606 -1.84385
5.08451 -5.22976 -1.71837
5.05956 -5.20812 -1.53621
5.9602 -6.11143 -1.60385
6.07161 -6.17187 -1.42067
6.15267 -6.25416 -1.23387
6.07886 -6.18496 -1.0161
6.08608 -6.19614 -0.816361
6.11791 -6.22964 -0.61921
7.79954 -7.90411 -0.529035
7.81036 -7.92002 -0.272019
-0.000267467 -0.155998 -0.0164911
-0.000267467 -0.155998 -0.0164911
-0.000267467 -0.155998 -0.0164911
7.85941 -7.98409 0.759365
-0.000267467 -0.155998 -0.0164911
-0.000267467 -0.155998 -0.0164911
-0.000267467 -0.155998 -0.0164911
-0.000267467 -0.155998 -0.0164911
-0.000267467 -0.155998 -0.0164911
0.427378 -0.584356 -0.375547
0.440443 -0.59769 -0.367162
0.490865 -0.648497 -0.386386
2.76564 -2.93302 -1.98436
2.94414 -3.11423 -1.9921
3.13885 -3.31084 -1.99799
3.37759 -3.553 -2.01747
3.62522 -3.80448 -2.02492
3.93863 -4.12117 -2.05068
4.29118 -4.47898 -2.07469
4.67883 -4.87254 -2.08953
4.92466 -5.12193 -2.02186
4.93261 -5.13329 -1.85087
5.02505 -5.22811 -1.70815
5.04001 -5.2466 -1.53905
5.99764 -6.21786 -1.62302
6.01174 -6.18123 -1.41476
6.02376 -6.19513 -1.21514
6.01463 -6.18998 -1.01115
6.05255 -6.23212 -0.81647
6.11377 -6.29549 -0.622201
7.79273 -7.98672 -0.531459
7.80362 -8.00286 -0.273194
-0.000281733 -0.155561 -0.0164449
-0.000281733 -0.155561 -0.0164449
-0.000281733 -0.155561 -0.0164449
7.84929 -8.06425 0.76294
-0.000281733 -0.155561 -0.0164449
-0.000281733 -0.155561 -0.0164449
-0.000281733 -0.155561 -0.0164449
-0.000281733 -0.155561 -0.0164449
-0.000281733 -0.155561 -0.0164449
0.423674 -0.585164 -0.37448
0.434233 -0.596119 -0.364181
0.487978 -0.650878 -0.386336
2.74708 -2.94594 -1.9825
2.92579 -3.12946 -1.99119
3.12011 -3.32912 -1.99794
3.35286 -3.56686 -2.01434
3.60931 -3.83024 -2.02777
3.92289 -4.15212 -2.05472
4.2662 -4.50326 -2.07462
4.65427 -4.90183 -2.09066
4.92329 -5.17951 -2.03336
4.93089 -5.18884 -1.86092
5.09288 -5.3576 -1.74128
5.15334 -5.42288 -1.58264
6.15946 -6.45545 -1.67627
5.97138 -6.20976 -1.41338
5.97103 -6.21344 -1.21172
5.97977 -6.22422 -1.01108
6.00908 -6.25804 -0.815284
6.0464 -6.30002 -0.619057
7.78534 -8.06959 -0.533891
7.79745 -8.08724 -0.274408
7.80397 -8.09913 -0.0161646
7.81179 -8.10954 0.242693
-0.00022503 -0.155222 -0.0164088
-0.00022503 -0.155222 -0.0164088
7.83211 -8.14616 1.02777
-0.00022503 -0.155222 -0.0164088
-0.00022503 -0.155222 -0.0164088
-0.00022503 -0.155222 -0.0164088
-0.00022503 -0.155222 -0.0164088
0.417513 -0.58357 -0.371374
0.43033 -0.597065 -0.363158
0.486326 -0.654687 -0.387236
2.73052 -2.96191 -1.98245
2.90859 -3.1459 -1.99113
3.10555 -3.3505 -2.00031
3.32993 -3.58364 -2.01273
3.58809 -3.85062 -2.02771
3.89459 -4.16896 -2.05193
4.25035 -4.53697 -2.07904
4.6375 -4.93918 -2.09536
4.91971 -5.23366 -2.04376
4.92745 -5.24328 -1.87048
4.99919 -5.32078 -1.71954
-0.000288957 -0.15482 -0.0163663
7.97249 -8.4011 -2.17714
5.95048 -6.2603 -1.41688
5.9388 -6.25026 -1.21221
5.94776 -6.26344 -1.0117
5.9797 -6.30031 -0.816132
5.98724 -6.31003 -0.616607
6.13957 -6.47082 -0.426914
10.0216 -10.4674 -0.349854
7.76782 -8.1536 -0.0160769
-0.000288957 -0.15482 -0.0163663
7.78603 -8.1802 0.505388
7.80753 -8.20774 0.768279
7.80255 -8.20516 1.0299
-0.000288957 -0.15482 -0.0163663
-0.000288957 -0.15482 -0.0163663
-0.000288957 -0.15482 -0.0163663
-0.000288957 -0.15482 -0.0163663
0.419886 -0.590504 -0.375415
0.424248 -0.595253 -0.36017
0.484751 -0.658291 -0.388131
2.71103 -2.97287 -1.9797
2.88884 -3.15966 -1.98937
3.08586 -3.36669 -1.99944
3.31073 -3.60181 -2.01267
3.56679 -3.8709 -2.02765
3.8714 -4.1909 -2.05186
4.21584 -4.55136 -2.07449
4.60846 -4.96403 -2.09469
4.91558 -5.28789 -2.05416
4.92607 -5.3005 -1.88105
5.02724 -5.40962 -1.7393
5.03955 -5.42604 -1.56629
7.95329 -8.47921 -2.1852
5.94778 -6.32573 -1.42426
5.93111 -6.31254 -1.2177
5.95625 -6.34061 -1.01882
5.95764 -6.34616 -0.817729
5.94064 -6.33261 -0.615424
6.09026 -6.4902 -0.425904
9.91487 -10.4756 -0.348181
9.93902 -10.5077 -0.0158942
8.51846 -9.03073 0.269675
-0.000232254 -0.154481 -0.0163302
-0.000232254 -0.154481 -0.0163302
7.76295 -8.25965 1.0311
-0.000232254 -0.154481 -0.0163302
7.80172 -8.3081 1.57004
7.81782 -8.33039 1.84258
-0.000232254 -0.154481 -0.0163302
0.417346 -0.592634 -0.375375
0.424086 -0.599999 -0.362096
0.486621 -0.665921 -0.391846
2.70042 -2.99496 -1.98413
2.87713 -3.18287 -1.99358
3.07234 -3.38935 -2.00264
3.29531 -3.62645 -2.0157
3.54977 -3.89701 -2.0305
3.85197 -4.21686 -2.05385
4.19618 -4.58281 -2.07762
4.58381 -4.99514 -2.09641
4.91499 -5.34651 -2.06623
4.91807 -5.35318 -1.88959
5.11586 -5.56395 -1.78026
6.76407 -7.31155 -2.1092
7.9308 -8.55166 -2.19215
9.64046 -10.2763 -2.31243
9.67582 -10.3166 -1.98791
-0.00024652 -0.154044 -0.0162841
5.84809 -6.3046 -0.807815
5.90494 -6.3664 -0.615354
6.06911 -6.54329 -0.426949
9.81077 -10.489 -0.346649
9.8393 -10.5223 -0.0157974
8.46007 -9.07491 0.269584
-0.00024652 -0.154044 -0.0162841
-0.00024652 -0.154044 -0.0162841
7.76398 -8.35444 1.03769
-0.00024652 -0.154044 -0.0162841
-0.00024652 -0.154044 -0.0162841
-0.00024652 -0.154044 -0.0162841
-0.00024652 -0.154044 -0.0162841
0.412428 -0.592155 -0.373292
0.421475 -0.60203 -0.36205
0.484826 -0.669532 -0.392732
2.68032 -3.00622 -1.98138
2.85226 -3.19115 -1.98839
3.05615 -3.40926 -2.0042
3.27644 -3.64626 -2.01641
3.52943 -3.91834 -2.03116
3.82975 -4.24 -2.05447
4.17191 -4.60802 -2.07821
4.55843 -5.0238 -2.09753
4.90865 -5.39968 -2.07608
4.91313 -5.40794 -1.89914
5.1125 -5.62283 -1.78988
6.72931 -7.35712 -2.11119
7.91847 -8.63567 -2.20206
9.54955 -10.2969 -2.30456
9.58716 -10.34 -1.98169
6.07941 -6.61749 -1.05206
5.8207 -6.34649 -0.808852
5.88953 -6.42175 -0.617371
6.05401 -6.60104 -0.428361
9.7086 -10.4998 -0.345119
9.73835 -10.5348 -0.0157141
8.40574 -9.12026 0.269575
-0.000239478 -0.15374 -0.0162516
-0.000239478 -0.15374 -0.0162516
7.75747 -8.44233 1.04334
-0.000239478 -0.15374 -0.0162516
-0.000239478 -0.15374 -0.0162516
-0.000239478 -0.15374 -0.0162516
-0.000239478 -0.15374 -0.0162516
0.413438 -0.59791 -0.376309
0.421292 -0.606641 -0.363968
0.481889 -0.671948 -0.39269
2.66633 -3.02393 -1.98313
2.83958 -3.21244 -1.99176
3.03737 -3.42653 -2.00415
3.25502 -3.66339 -2.01558
3.5077 -3.93833 -2.03111
3.80746 -4.26303 -2.0551
4.14488 -4.63022 -2.07751
4.53289 -5.05244 -2.09866
4.90315 -5.4543 -2.08649
4.91173 -5.46709 -1.91022
5.0783 -5.64901 -1.78889
6.70499 -7.41416 -2.11652
7.89216 -8.70535 -2.20827
9.44927 -10.3066 -2.29442
9.47972 -10.3425 -1.97158
6.02184 -6.63025 -1.04851
-0.000253744 -0.153303 -0.0162054
-0.000253744 -0.153303 -0.0162054
6.06164 -6.68377 -0.431359
9.60127 -10.5039 -0.343404
9.63347 -10.542 -0.0156214
8.34446 -9.15792 0.269336
-0.000253744 -0.153303 -0.0162054
-0.000253744 -0.153303 -0.0162054
7.75144 -8.53185 1.04919
-0.000253744 -0.153303 -0.0162054
-0.000253744 -0.153303 -0.0162054
-0.000253744 -0.153303 -0.0162054
-0.000253744 -0.153303 -0.0162054
0.408498 -0.597296 -0.374218
0.417468 -0.607381 -0.362944
0.474096 -0.669183 -0.388897
2.65457 -3.04408 -1.98666
2.82435 -3.23105 -1.99341
3.02458 -3.45023 -2.00815
3.2348 -3.68169 -2.01552
3.48959 -3.96213 -2.03322
3.78748 -4.28864 -2.05708
4.12545 -4.6606 -2.08064
4.50843 -5.08235 -2.10038
4.90242 -5.51477 -2.0991
4.90447 -5.52054 -1.91926
5.0531 -5.68498 -1.79112
6.67879 -7.46958 -2.12143
7.87451 -8.78515 -2.21707
9.35315 -10.3198 -2.28525
9.38335 -10.3558 -1.9637
9.40552 -10.3868 -1.63854
-0.00026801 -0.152866 -0.0161593
-0.00026801 -0.152866 -0.0161593
-0.00026801 -0.152866 -0.0161593
9.50222 -10.516 -0.341964
9.53424 -10.5542 -0.0155247
8.28561 -9.19806 0.269195
-0.00026801 -0.152866 -0.0161593
-0.00026801 -0.152866 -0.0161593
7.74465 -8.62147 1.05504
-0.00026801 -0.152866 -0.0161593
-0.00026801 -0.152866 -0.0161593
-0.00026801 -0.152866 -0.0161593
-0.00026801 -0.152866 -0.0161593
0.407101 -0.600612 -0.375203
0.412478 -0.606795 -0.360939
0.461645 -0.661098 -0.381345
2.63906 -3.06026 -1.9875
2.79929 -3.23887 -1.98822
3.00624 -3.46921 -2.00892
3.21562 -3.70128 -2.01623
3.46759 -3.98185 -2.03317
3.76165 -4.30938 -2.05634
4.10194 -4.68671 -2.08185
4.48893 -5.1178 -2.10449
4.89237 -5.56764 -2.1084
4.89944 -5.57712 -1.92932
5.02406 -5.71882 -1.79244
6.6418 -7.516 -2.12343
7.85472 -8.86648 -2.22588
9.26253 -10.3381 -2.27737
9.28931 -10.3743 -1.95664
9.30631 -10.3963 -1.63149
-0.000260967 -0.152562 -0.0161268
-0.000260967 -0.152562 -0.0161268
-0.000260967 -0.152562 -0.0161268
9.40343 -10.5272 -0.340525
9.4307 -10.5643 -0.0154348
8.23067 -9.24235 0.269187
-0.000260967 -0.152562 -0.0161268
-0.000260967 -0.152562 -0.0161268
-0.000260967 -0.152562 -0.0161268
-0.000260967 -0.152562 -0.0161268
-0.000260967 -0.152562 -0.0161268
-0.000260967 -0.152562 -0.0161268
-0.000260967 -0.152562 -0.0161268
0.402112 -0.600034 -0.373115
0.41324 -0.61274 -0.363835
0.458637 -0.663414 -0.381298
2.62057 -3.07424 -1.98655
2.78333 -3.25771 -1.98987
2.99067 -3.49011 -2.01129
3.2019 -3.72816 -2.0208
3.44728 -4.00474 -2.03456
3.73891 -4.33198 -2.05696
4.07491 -4.71065 -2.08179
4.46195 -5.14686 -2.10561
4.89565 -5.63405 -2.12321
4.8929 -5.63463 -1.93939
4.99837 -5.75454 -1.79467
6.61621 -7.57274 -2.12875
7.83185 -8.942 -2.23356
9.16628 -10.3529 -2.26852
9.18661 -10.3788 -1.94738
9.21083 -10.4126 -1.62537
-0.000275233 -0.152125 -0.0160807
-0.000275233 -0.152125 -0.0160807
9.96948 -11.2761 -0.711905
9.30167 -10.5378 -0.339047
9.3278 -10.5703 -0.0153381
8.16861 -9.28177 0.268992
-0.000275233 -0.152125 -0.0160807
-0.000275233 -0.152125 -0.0160807
-0.000275233 -0.152125 -0.0160807
-0.000275233 -0.152125 -0.0160807
-0.000275233 -0.152125 -0.0160807
-0.000275233 -0.152125 -0.0160807
-0.000275233 -0.152125 -0.0160807
0.397222 -0.599385 -0.371031
0.407136 -0.610791 -0.36085
0.450972 -0.660407 -0.377503
0.48706 -0.701455 -0.384827
2.76959 -3.27697 -1.99239
2.97387 -3.5097 -2.01287
3.18003 -3.74486 -2.01997
3.43183 -4.03055 -2.03813
3.72094 -4.36008 -2.06032
4.05443 -4.73868 -2.08429
4.43649 -5.17424 -2.10674
4.878 -5.67763 -2.1292
4.8929 -5.69629 -1.95147
4.97375 -5.7917 -1.79737
6.57984 -7.61514 -2.13034
7.82287 -9.03098 -2.24495
9.06538 -10.358 -2.25806
9.08146 -10.3793 -1.93754
9.10017 -10.4072 -1.61623
-0.000218531 -0.151786 -0.0160446
-0.000218531 -0.151786 -0.0160446
9.82444 -11.2418 -0.706136
9.20362 -10.5443 -0.337561
9.22785 -10.5786 -0.0152519
8.11054 -9.32227 0.268899
-0.000218531 -0.151786 -0.0160446
-0.000218531 -0.151786 -0.0160446
-0.000218531 -0.151786 -0.0160446
-0.000218531 -0.151786 -0.0160446
-0.000218531 -0.151786 -0.0160446
-0.000218531 -0.151786 -0.0160446
-0.000218531 -0.151786 -0.0160446
0.398183 -0.605174 -0.374057
0.404624 -0.61275 -0.360814
0.45042 -0.665142 -0.379332
0.487616 -0.707874 -0.387481
2.75923 -3.30018 -1.99747
2.95625 -3.52726 -2.01363
3.15624 -3.75796 -2.0176
3.40773 -4.04651 -2.03662
3.69616 -4.37901 -2.05957
4.02751 -4.75944 -2.08359
4.4134 -5.20431 -2.10906
4.85462 -5.7131 -2.13244
4.88477 -5.74946 -1.96052
4.94979 -5.82779 -1.80007
6.55477 -7.67061 -2.13567
7.8132 -9.12016 -2.25635
8.97823 -10.374 -2.25051
8.93657 -10.3298 -1.91881
8.95749 -10.3604 -1.60107
-0.000282457 -0.151384 -0.016002
-0.000282457 -0.151384 -0.016002
9.74651 -11.2781 -0.704928
9.10724 -10.5516 -0.336124
9.13258 -10.5875 -0.0151626
8.05782 -9.36556 0.268937
-0.000282457 -0.151384 -0.016002
-0.000282457 -0.151384 -0.016002
-0.000282457 -0.151384 -0.016002
-0.000282457 -0.151384 -0.016002
-0.000282457 -0.151384 -0.016002
-0.000282457 -0.151384 -0.016002
-0.000282457 -0.151384 -0.016002
0.395501 -0.607105 -0.37401
0.400679 -0.613425 -0.35979
0.443919 -0.663466 -0.376476
0.494739 -0.722452 -0.395505
2.7352 -3.31116 -1.99399
2.93377 -3.54161 -2.01194
3.13602 -3.77769 -2.01831
3.38631 -4.06974 -2.03802
3.67471 -4.40477 -2.06156
4.00047 -4.78499 -2.08416
4.38493 -5.23369 -2.11018
4.82531 -5.7459 -2.13403
4.87828 -5.81106 -1.97159
4.92107 -5.86256 -1.80184
6.51503 -7.7175 -2.13766
7.79542 -9.21057 -2.267
-0.000225754 -0.151045 -0.0159659
-0.000225754 -0.151045 -0.0159659
-0.000225754 -0.151045 -0.0159659
-0.000225754 -0.151045 -0.0159659
-0.000225754 -0.151045 -0.0159659
-0.000225754 -0.151045 -0.0159659
9.00558 -10.5629 -0.334695
9.03383 -10.5989 -0.0150792
8.00431 -9.41441 0.269067
-0.000225754 -0.151045 -0.0159659
-0.000225754 -0.151045 -0.0159659
-0.000225754 -0.151045 -0.0159659
-0.000225754 -0.151045 -0.0159659
-0.000225754 -0.151045 -0.0159659
-0.000225754 -0.151045 -0.0159659
-0.000225754 -0.151045 -0.0159659
0.392869 -0.609 -0.373967
0.397997 -0.615356 -0.359748
0.439824 -0.664245 -0.37549
0.488039 -0.720906 -0.392776
2.71816 -3.32784 -1.99479
2.91952 -3.56547 -2.01594
3.11983 -3.80092 -2.02133
3.36608 -4.09168 -2.03942
3.64698 -4.42332 -2.06014
3.97743 -4.8119 -2.08602
4.35925 -5.26282 -2.1119
4.79199 -5.77406 -2.13396
4.87566 -5.874 -1.98367
4.89977 -5.9062 -1.80639
6.47508 -7.76171 -2.13926
7.77327 -9.29371 -2.27616
-0.00024002 -0.150608 -0.0159197
-0.00024002 -0.150608 -0.0159197
-0.00024002 -0.150608 -0.0159197
-0.00024002 -0.150608 -0.0159197
-0.00024002 -0.150608 -0.0159197
9.51825 -11.2768 -0.697755
8.91428 -10.5778 -0.333494
8.93527 -10.6094 -0.0149873
7.94036 -9.44779 0.268786
-0.00024002 -0.150608 -0.0159197
-0.00024002 -0.150608 -0.0159197
-0.00024002 -0.150608 -0.0159197
-0.00024002 -0.150608 -0.0159197
-0.00024002 -0.150608 -0.0159197
-0.00024002 -0.150608 -0.0159197
-0.00024002 -0.150608 -0.0159197
0.389022 -0.609608 -0.372902
0.397545 -0.62001 -0.361666
0.439024 -0.669157 -0.377324
0.492684 -0.732922 -0.399009
2.69509 -3.33753 -1.99131
2.8904 -3.57076 -2.00939
3.09456 -3.81479 -2.01897
3.34693 -4.11486 -2.04154
3.62705 -4.44958 -2.06281
3.95415 -4.83869 -2.08787
4.33221 -5.29042 -2.11303
4.75826 -5.79971 -2.13334
4.86753 -5.93129 -1.99373
4.88902 -5.96074 -1.81461
6.43749 -7.80333 -2.14084
7.75875 -9.38027 -2.28681
-0.000254287 -0.15017 -0.0158736
-0.000254287 -0.15017 -0.0158736
-0.000254287 -0.15017 -0.0158736
-0.000254287 -0.15017 -0.0158736
-0.000254287 -0.15017 -0.0158736
9.41076 -11.2839 -0.694679
8.81269 -10.5797 -0.331921
8.8426 -10.6221 -0.0148994
7.88115 -9.48986 0.268728
-0.000254287 -0.15017 -0.0158736
-0.000254287 -0.15017 -0.0158736
-0.000254287 -0.15017 -0.0158736
-0.000254287 -0.15017 -0.0158736
-0.000254287 -0.15017 -0.0158736
-0.000254287 -0.15017 -0.0158736
-0.000254287 -0.15017 -0.0158736
0.389763 -0.615405 -0.375925
0.396006 -0.623132 -0.362598
0.441767 -0.678025 -0.381978
0.489407 -0.73528 -0.398966
2.68013 -3.35676 -1.99382
2.87472 -3.59068 -2.01177
3.07875 -3.8373 -2.02199
3.32161 -4.13079 -2.04002
3.60422 -4.47089 -2.06343
3.92711 -4.86113 -2.08782
4.30622 -5.31932 -2.11475
4.73279 -5.83326 -2.13603
4.86262 -5.99306 -2.00531
4.88394 -6.02052 -1.82469
6.39328 -7.83991 -2.14076
7.74818 -9.47587 -2.29931
8.57365 -10.3816 -2.20802
-0.000247244 -0.149867 -0.0158411
8.63383 -10.4637 -1.58541
-0.000247244 -0.149867 -0.0158411
-0.000247244 -0.149867 -0.0158411
-0.000247244 -0.149867 -0.0158411
8.72423 -10.5962 -0.33081
8.7442 -10.6234 -0.0148178
7.83267 -9.53798 0.268952
-0.000247244 -0.149867 -0.0158411
-0.000247244 -0.149867 -0.0158411
-0.000247244 -0.149867 -0.0158411
-0.000247244 -0.149867 -0.0158411
-0.000247244 -0.149867 -0.0158411
-0.000247244 -0.149867 -0.0158411
-0.000247244 -0.149867 -0.0158411
0.38706 -0.6172 -0.375876
0.38993 -0.621012 -0.359618
0.436508 -0.677473 -0.380058
0.489494 -0.741885 -0.401618
2.66513 -3.37602 -1.99633
2.85429 -3.60732 -2.01171
3.05749 -3.85468 -2.02194
3.30098 -4.1524 -2.04141
3.58214 -4.4962 -2.06542
3.90228 -4.88623 -2.08904
4.27875 -5.34662 -2.11588
4.70265 -5.8653 -2.13762
4.85713 -6.05495 -2.01689
4.86996 -6.07456 -1.83245
6.35002 -7.8804 -2.14151
4.97038 -6.20493 -1.4912
8.15831 -10.0004 -2.11622
-0.00026151 -0.149429 -0.0157949
8.5413 -10.473 -1.57929
-0.00026151 -0.149429 -0.0157949
-0.00026151 -0.149429 -0.0157949
-0.00026151 -0.149429 -0.0157949
8.62823 -10.6027 -0.32942
8.64868 -10.6346 -0.0147221
7.73901 -9.53483 0.267586
-0.00026151 -0.149429 -0.0157949
-0.00026151 -0.149429 -0.0157949
-0.00026151 -0.149429 -0.0157949
-0.00026151 -0.149429 -0.0157949
-0.00026151 -0.149429 -0.0157949
-0.00026151 -0.149429 -0.0157949
-0.00026151 -0.149429 -0.0157949
0.380984 -0.615093 -0.372771
0.391537 -0.628361 -0.363496
0.433308 -0.679625 -0.38001
0.487083 -0.745792 -0.402473
2.64588 -3.39137 -1.99627
2.83201 -3.62047 -2.01003
3.03663 -3.87381 -2.02265
3.28073 -4.17593 -2.04354
3.5582 -4.51785 -2.06605
3.87649 -4.91187 -2.09025
4.25145 -5.37601 -2.1176
4.67082 -5.89339 -2.1381
4.84883 -6.11633 -2.02796
4.85782 -6.12935 -1.84068
6.3041 -7.91495 -2.14102
4.949 -6.24989 -1.4952
8.12842 -10.0834 -2.12358
8.45533 -10.4862 -1.89156
8.45722 -10.4956 -1.57503
-0.000204807 -0.149091 -0.0157589
-0.000204807 -0.149091 -0.0157589
-0.000204807 -0.149091 -0.0157589
8.53702 -10.6178 -0.328273
8.55908 -10.6482 -0.0146415
7.64146 -9.52904 0.266138
-0.000204807 -0.149091 -0.0157589
-0.000204807 -0.149091 -0.0157589
-0.000204807 -0.149091 -0.0157589
7.67741 -9.59542 1.4088
-0.000204807 -0.149091 -0.0157589
-0.000204807 -0.149091 -0.0157589
-0.000204807 -0.149091 -0.0157589
0.376122 -0.614272 -0.370693
0.38767 -0.62883 -0.362469
0.429214 -0.680403 -0.379033
0.488115 -0.75374 -0.406015
2.63168 -3.41178 -1.99964
2.81426 -3.63924 -2.0116
3.01398 -3.88941 -2.02182
3.25631 -4.19294 -2.04276
3.533 -4.53792 -2.06599
3.85258 -4.9382 -2.09211
4.2249 -5.40455 -2.11932
4.64247 -5.9259 -2.14024
4.84707 -6.18453 -2.04156
4.84767 -6.18727 -1.84984
6.26294 -7.95539 -2.14219
4.92732 -6.29476 -1.4992
-0.000268734 -0.148689 -0.0157164
-0.000268734 -0.148689 -0.0157164
-0.000268734 -0.148689 -0.0157164
-0.000268734 -0.148689 -0.0157164
-0.000268734 -0.148689 -0.0157164
-0.000268734 -0.148689 -0.0157164
8.44382 -10.6259 -0.326975
8.46582 -10.6566 -0.0145615
7.62866 -9.62391 0.267763
-0.000268734 -0.148689 -0.0157164
-0.000268734 -0.148689 -0.0157164
-0.000268734 -0.148689 -0.0157164
-0.000268734 -0.148689 -0.0157164
-0.000268734 -0.148689 -0.0157164
-0.000268734 -0.148689 -0.0157164
-0.000268734 -0.148689 -0.0157164
0.376693 -0.620041 -0.373706
0.378399 -0.622518 -0.356551
0.426113 -0.682483 -0.37899
0.474613 -0.743601 -0.397898
2.61065 -3.42374 -1.99788
2.79862 -3.66071 -2.01479
2.99462 -3.9092 -2.0233
3.23642 -4.21561 -2.04488
3.51346 -4.56518 -2.06935
3.82606 -4.96141 -2.09269
4.19449 -5.42836 -2.11925
4.61386 -5.95815 -2.14237
4.83869 -6.24537 -2.05263
4.83941 -6.24828 -1.85991
6.22515 -8.00023 -2.14462
4.89674 -6.32895 -1.50062
7.92219 -10.0616 -2.09943
8.48528 -10.7695 -1.92505
-0.000212031 -0.14835 -0.0156802
-0.000212031 -0.14835 -0.0156802
8.52151 -10.8329 -0.970131
-0.000212031 -0.14835 -0.0156802
8.35344 -10.6365 -0.325779
8.37396 -10.6657 -0.0144787
7.61748 -9.72214 0.269474
-0.000212031 -0.14835 -0.0156802
-0.000212031 -0.14835 -0.0156802
-0.000212031 -0.14835 -0.0156802
-0.000212031 -0.14835 -0.0156802
-0.000212031 -0.14835 -0.0156802
-0.000212031 -0.14835 -0.0156802
-0.000212031 -0.14835 -0.0156802
0.369701 -0.616433 -0.369584
0.377826 -0.627107 -0.358473
0.418654 -0.679028 -0.375194
0.470051 -0.74456 -0.39696
2.59395 -3.44115 -1.99953
2.77388 -3.67067 -2.01149
2.97064 -3.92312 -2.0217
3.21759 -4.2397 -2.04773
3.488 -4.58498 -2.06929
3.80177 -4.98742 -2.09454
4.1687 -5.45811 -2.12157
4.58508 -5.99036 -2.14452
4.83451 -6.31234 -2.06573
4.83417 -6.31392 -1.87136
6.17861 -8.03401 -2.14412
4.86945 -6.36744 -1.50314
7.84046 -10.0757 -2.09286
8.24467 -10.5909 -1.88434
-0.000226297 -0.147912 -0.0156341
8.31234 -10.6909 -1.26695
-0.000226297 -0.147912 -0.0156341
-0.000226297 -0.147912 -0.0156341
8.26199 -10.6448 -0.324539
8.28231 -10.6741 -0.0143916
7.60787 -9.82363 0.271285
-0.000226297 -0.147912 -0.0156341
7.65318 -9.89106 0.851902
-0.000226297 -0.147912 -0.0156341
-0.000226297 -0.147912 -0.0156341
-0.000226297 -0.147912 -0.0156341
7.64931 -9.9093 2.02306
-0.000226297 -0.147912 -0.0156341
0.366998 -0.618227 -0.369547
0.375052 -0.628803 -0.358421
0.417783 -0.68384 -0.377029
0.461107 -0.739831 -0.392431
2.57934 -3.4614 -2.0029
2.7551 -3.68958 -2.01305
2.95109 -3.94274 -2.02319
3.19391 -4.25777 -2.04767
3.46387 -4.60821 -2.07059
3.77155 -5.00594 -2.0932
4.1439 -5.4892 -2.12449
4.55269 -6.02015 -2.14555
4.82024 -6.36722 -2.07477
4.82727 -6.3806 -1.88281
6.13888 -8.0795 -2.14654
4.84092 -6.40683 -1.50567
7.76128 -10.0923 -2.08694
8.13627 -10.5799 -1.87369
-0.000219255 -0.147609 -0.0156016
8.17556 -10.6409 -1.25536
8.19487 -10.6729 -0.947101
8.21652 -10.7041 -0.638149
8.17189 -10.654 -0.323343
8.19264 -10.688 -0.0143091
7.59866 -9.92694 0.273138
-0.000219255 -0.147609 -0.0156016
7.60742 -9.95167 0.853388
-0.000219255 -0.147609 -0.0156016
-0.000219255 -0.147609 -0.0156016
-0.000219255 -0.147609 -0.0156016
-0.000219255 -0.147609 -0.0156016
-0.000219255 -0.147609 -0.0156016
0.366304 -0.622745 -0.371544
0.371135 -0.629307 -0.357404
0.412382 -0.683089 -0.375104
0.45761 -0.742197 -0.392389
2.56686 -3.48448 -2.00798
2.7369 -3.70792 -2.01463
2.92857 -3.95982 -2.02313
3.17472 -4.28167 -2.05052
3.43926 -4.62914 -2.07121
3.74695 -5.03171 -2.09506
4.11191 -5.51118 -2.12383
4.52459 -6.05348 -2.14823
4.81959 -6.44064 -2.0899
4.81848 -6.44345 -1.89334
6.10159 -8.12262 -2.14896
4.82258 -6.45522 -1.51078
7.67441 -10.1019 -2.0794
8.04092 -10.5808 -1.86553
7.89563 -10.3992 -1.52522
8.07182 -10.6352 -1.24896
8.08907 -10.6611 -0.941857
8.10865 -10.6938 -0.634619
8.08557 -10.6672 -0.322284
8.10127 -10.6949 -0.0142235
7.59037 -10.0365 0.275134
-0.000233521 -0.147172 -0.0155554
7.59696 -10.0552 0.858775
-0.000233521 -0.147172 -0.0155554
-0.000233521 -0.147172 -0.0155554
-0.000233521 -0.147172 -0.0155554
-0.000233521 -0.147172 -0.0155554
-0.000233521 -0.147172 -0.0155554
0.365689 -0.627057 -0.373533
0.36841 -0.630967 -0.357359
0.413691 -0.690669 -0.378821
0.451045 -0.740102 -0.389655
2.54382 -3.49263 -2.0045
2.71477 -3.71991 -2.01295
2.9072 -3.97578 -2.02308
3.14931 -4.296 -2.04901
3.41646 -4.65096 -2.07252
3.72187 -5.05518 -2.09627
4.0819 -5.53365 -2.12377
4.49737 -6.08603 -2.15093
4.81706 -6.51024 -2.104
4.81377 -6.51032 -1.90527
6.06162 -8.16247 -2.15055
4.81095 -6.51305 -1.51811
7.60311 -10.1238 -2.07511
7.93093 -10.5574 -1.85348
7.82141 -10.4207 -1.5219
7.96965 -10.6227 -1.24219
7.98789 -10.6501 -0.936891
8.00611 -10.6813 -0.631195
7.99645 -10.6721 -0.321047
8.01557 -10.7046 -0.0141421
7.57847 -10.1358 0.276897
-0.000247787 -0.146734 -0.0155094
7.58844 -10.1591 0.864305
-0.000247787 -0.146734 -0.0155094
-0.000247787 -0.146734 -0.0155094
-0.000247787 -0.146734 -0.0155094
-0.000247787 -0.146734 -0.0155094
-0.000247787 -0.146734 -0.0155094
0.357681 -0.622019 -0.368396
0.365537 -0.632734 -0.357313
0.408339 -0.689882 -0.376897
0.447476 -0.742368 -0.38961
2.53085 -3.51778 -2.01043
2.69345 -3.73553 -2.01288
2.88662 -3.99554 -2.02456
3.1239 -4.31471 -2.04894
3.39188 -4.67376 -2.07383
3.69183 -5.07752 -2.09622
4.04888 -5.55813 -2.1237
4.47009 -6.12304 -2.15472
4.80703 -6.578 -2.11659
4.80618 -6.57895 -1.91718
6.01487 -8.20216 -2.15131
4.80133 -6.58131 -1.52729
-0.000240745 -0.146431 -0.0154767
7.83797 -10.5628 -1.84616
7.73759 -10.4365 -1.51741
7.86782 -10.6169 -1.23597
7.88104 -10.638 -0.931649
7.90378 -10.6755 -0.628034
7.90553 -10.6852 -0.319938
7.92515 -10.7148 -0.0140575
-0.000240745 -0.146431 -0.0154767
-0.000240745 -0.146431 -0.0154767
7.57189 -10.2611 0.869422
-0.000240745 -0.146431 -0.0154767
-0.000240745 -0.146431 -0.0154767
-0.000240745 -0.146431 -0.0154767
-0.000240745 -0.146431 -0.0154767
-0.000240745 -0.146431 -0.0154767
0.353892 -0.622285 -0.36733
0.362713 -0.634464 -0.357271
0.405218 -0.691827 -0.376852
0.43871 -0.737361 -0.385079
0.487628 -0.803712 -0.402954
2.67499 -3.75361 -2.01446
2.86333 -4.01024 -2.02373
3.10094 -4.33385 -2.04962
3.36689 -4.69437 -2.07445
3.66445 -5.09984 -2.09679
4.02106 -5.58562 -2.12543
4.43672 -6.14982 -2.1552
4.79981 -6.64564 -2.12969
4.79789 -6.64527 -1.92863
5.97646 -8.24725 -2.15413
4.78869 -6.64178 -1.535
7.70264 -10.5028 -2.13456
7.58168 -10.3436 -1.79992
7.66151 -10.4581 -1.51407
7.76223 -10.601 -1.22885
7.78481 -10.6348 -0.927391
7.79662 -10.658 -0.624331
7.81849 -10.6949 -0.318839
7.83555 -10.7214 -0.0139824
-0.000255011 -0.145993 -0.0154307
-0.000255011 -0.145993 -0.0154307
7.56209 -10.3699 0.875239
-0.000255011 -0.145993 -0.0154307
-0.000255011 -0.145993 -0.0154307
-0.000255011 -0.145993 -0.0154307
-0.000255011 -0.145993 -0.0154307
-0.000255011 -0.145993 -0.0154307
0.349158 -0.621221 -0.365254
0.357809 -0.633364 -0.355271
0.402046 -0.693807 -0.376813
0.439572 -0.74528 -0.388626
0.500979 -0.829533 -0.416605
2.65568 -3.77199 -2.01603
2.84204 -4.02772 -2.02444
3.07903 -4.35427 -2.05101
3.34313 -4.71847 -2.07644
3.63587 -5.12052 -2.09673
3.98851 -5.6068 -2.12477
4.40555 -6.18194 -2.15734
4.79651 -6.71976 -2.14481
4.79256 -6.71892 -1.94194
5.93171 -8.28696 -2.1553
4.78821 -6.72217 -1.54715
7.60541 -10.4957 -2.12411
7.6382 -10.5477 -1.82764
7.58434 -10.4777 -1.51051
7.6653 -10.5953 -1.223
7.67994 -10.6226 -0.922293
7.69924 -10.6524 -0.621361
7.73275 -10.7055 -0.317777
7.74785 -10.7335 -0.0138965
-0.000198308 -0.145655 -0.0153946
-0.000198308 -0.145655 -0.0153946
-0.000198308 -0.145655 -0.0153946
-0.000198308 -0.145655 -0.0153946
-0.000198308 -0.145655 -0.0153946
-0.000198308 -0.145655 -0.0153946
-0.000198308 -0.145655 -0.0153946
-0.000198308 -0.145655 -0.0153946
0.350353 -0.628399 -0.369283
0.357016 -0.637961 -0.357191
0.398754 -0.695724 -0.376762
0.435932 -0.747446 -0.388578
0.495976 -0.830503 -0.4157
2.63468 -3.78678 -2.01597
2.82222 -4.04866 -2.02669
3.0525 -4.3685 -2.04949
3.31782 -4.73884 -2.07707
3.60828 -5.14254 -2.09731
3.95922 -5.6324 -2.12589
4.37965 -6.21925 -2.16168
4.7834 -6.78144 -2.15588
4.7887 -6.79344 -1.95569
5.89414 -8.3307 -2.15814
4.77773 -6.78509 -1.55559
7.56925 -10.5754 -2.13115
7.57467 -10.5863 -1.82672
7.53567 -10.5399 -1.51298
7.56692 -10.5903 -1.21716
7.57726 -10.608 -0.917186
7.59806 -10.6441 -0.618204
7.63309 -10.6961 -0.316174
7.65386 -10.7322 -0.0138215
-0.000262234 -0.145252 -0.015352
-0.000262234 -0.145252 -0.015352
-0.000262234 -0.145252 -0.015352
-0.000262234 -0.145252 -0.015352
-0.000262234 -0.145252 -0.015352
-0.000262234 -0.145252 -0.015352
-0.000262234 -0.145252 -0.015352
-0.000262234 -0.145252 -0.015352
0.346663 -0.628593 -0.368223
0.355236 -0.640954 -0.358125
0.393652 -0.694758 -0.374848
0.42843 -0.743703 -0.384948
0.499359 -0.843304 -0.421649
2.61477 -3.80311 -2.01673
2.80144 -4.06548 -2.02741
3.03136 -4.39025 -2.05162
3.29351 -4.76054 -2.07838
3.58272 -5.1675 -2.09917
3.92861 -5.65629 -2.12642
4.3524 -6.25503 -2.16547
4.77767 -6.8542 -2.17049
4.77968 -6.86174 -1.96761
5.84768 -8.36837 -2.15889
4.76673 -6.85299 -1.56476
7.56264 -10.6894 -2.14565
7.57086 -10.7083 -1.84026
7.56773 -10.7074 -1.53097
7.55483 -10.6968 -1.22451
7.5563 -10.7063 -0.921834
7.55325 -10.7056 -0.619242
7.53841 -10.6923 -0.314745
7.55665 -10.7253 -0.0137395
-0.000205531 -0.144914 -0.015316
-0.000205531 -0.144914 -0.015316
-0.000205531 -0.144914 -0.015316
-0.000205531 -0.144914 -0.015316
-0.000205531 -0.144914 -0.015316
-0.000205531 -0.144914 -0.015316
-0.000205531 -0.144914 -0.015316
-0.000205531 -0.144914 -0.015316
0.344734 -0.631689 -0.369203
0.349317 -0.63842 -0.355145
0.393406 -0.700987 -0.377617
0.426941 -0.748816 -0.386704
0.493142 -0.84297 -0.4199
2.59464 -3.81915 -2.01748
2.77596 -4.07866 -2.02581
3.00723 -4.40933 -2.05229
3.26901 -4.78208 -2.07968
3.5539 -5.1898 -2.09974
3.89691 -5.68066 -2.12695
4.31599 -6.27807 -2.16486
4.76777 -6.92477 -2.18408
4.77442 -6.93651 -1.98136
5.80698 -8.41122 -2.16131
4.76641 -6.93473 -1.57728
7.55466 -10.811 -2.16111
7.56943 -10.8355 -1.85464
7.55999 -10.8296 -1.542
7.54837 -10.8208 -1.2335
7.55059 -10.8275 -0.928432
7.5446 -10.8266 -0.623521
-0.000219797 -0.144476 -0.0152702
-0.000219797 -0.144476 -0.0152702
-0.000219797 -0.144476 -0.0152702
7.57121 -10.8906 0.599416
7.54319 -10.8545 0.902409
7.57121 -10.9019 1.21366
-0.000219797 -0.144476 -0.0152702
-0.000219797 -0.144476 -0.0152702
-0.000219797 -0.144476 -0.0152702
-0.000219797 -0.144476 -0.0152702
0.339979 -0.630489 -0.367123
0.345406 -0.638618 -0.354124
0.389198 -0.701394 -0.376634
0.424466 -0.752317 -0.387555
0.491285 -0.848208 -0.421558
2.57452 -3.83519 -2.01824
2.75434 -4.09577 -2.02652
2.98225 -4.42418 -2.05151
3.24438 -4.80355 -2.08098
3.53001 -5.21545 -2.10224
3.87143 -5.70983 -2.12986
4.28058 -6.30246 -2.16479
4.75963 -6.99393 -2.19769
4.76407 -7.00516 -1.99327
5.76958 -8.456 -2.16456
7.05624 -10.3167 -2.34617
7.54174 -10.9236 -2.17495
7.5531 -10.9435 -1.86568
7.55056 -10.9475 -1.55257
7.5403 -10.9404 -1.24214
7.54257 -10.9474 -0.934891
7.53774 -10.9481 -0.627885
-0.000163094 -0.144138 -0.0152345
-0.000163094 -0.144138 -0.0152345
-0.000163094 -0.144138 -0.0152345
-0.000163094 -0.144138 -0.0152345
-0.000163094 -0.144138 -0.0152345
-0.000163094 -0.144138 -0.0152345
-0.000163094 -0.144138 -0.0152345
-0.000163094 -0.144138 -0.0152345
-0.000163094 -0.144138 -0.0152345
7.55748 -11.0375 2.48456
0.339193 -0.634772 -0.369114
0.343676 -0.641575 -0.355059
0.385089 -0.70173 -0.375653
0.418007 -0.749844 -0.384816
0.487248 -0.850659 -0.421516
2.55323 -3.84957 -2.01818
2.73118 -4.10917 -2.02569
2.96179 -4.44703 -2.05435
3.21746 -4.82184 -2.08093
3.50177 -5.23688 -2.10282
3.83927 -5.73172 -2.12981
4.25271 -6.33778 -2.16858
4.72667 -7.03042 -2.20066
4.75966 -7.08345 -2.00795
4.98245 -7.41343 -1.8873
6.99684 -10.3597 -2.34645
7.53634 -11.0447 -2.19074
7.54363 -11.063 -1.87865
7.54093 -11.0627 -1.56291
7.53192 -11.0575 -1.25059
7.53229 -11.0659 -0.94121
7.52823 -11.0637 -0.631979
-0.000227021 -0.143735 -0.0151924
-0.000227021 -0.143735 -0.0151924
-0.000227021 -0.143735 -0.0151924
-0.000227021 -0.143735 -0.0151924
-0.000227021 -0.143735 -0.0151924
-0.000227021 -0.143735 -0.0151924
-0.000227021 -0.143735 -0.0151924
-0.000227021 -0.143735 -0.0151924
-0.000227021 -0.143735 -0.0151924
-0.000227021 -0.143735 -0.0151924
0.336298 -0.636403 -0.369073
0.341698 -0.644711 -0.356
0.378801 -0.699298 -0.372799
0.415433 -0.753416 -0.385671
0.481976 -0.851671 -0.420618
2.53079 -3.86231 -2.01731
2.71179 -4.13109 -2.02872
2.93721 -4.46567 -2.05502
3.19475 -4.84617 -2.0836
3.47467 -5.26188 -2.10467
3.80601 -5.75396 -2.12973
4.21684 -6.36173 -2.16851
4.69978 -7.07878 -2.20716
4.75346 -7.16035 -2.02216
-0.000241286 -0.143298 -0.0151466
6.93891 -10.4011 -2.34674
7.52048 -11.1606 -2.20491
7.53306 -11.1828 -1.89163
7.53081 -11.1874 -1.57418
7.51966 -11.179 -1.25922
7.52425 -11.1895 -0.947942
7.51278 -11.1805 -0.635982
-0.000241286 -0.143298 -0.0151466
-0.000241286 -0.143298 -0.0151466
-0.000241286 -0.143298 -0.0151466
-0.000241286 -0.143298 -0.0151466
-0.000241286 -0.143298 -0.0151466
-0.000241286 -0.143298 -0.0151466
-0.000241286 -0.143298 -0.0151466
-0.000241286 -0.143298 -0.0151466
-0.000241286 -0.143298 -0.0151466
-0.000241286 -0.143298 -0.0151466
0.329612 -0.632274 -0.364953
0.338782 -0.646207 -0.355949
0.377589 -0.704053 -0.374637
0.40989 -0.752456 -0.383834
0.466834 -0.837568 -0.411166
2.51342 -3.88261 -2.02051
2.6908 -4.14932 -2.0302
2.9133 -4.48368 -2.05568
3.16755 -4.86406 -2.08353
3.44513 -5.28144 -2.10461
3.77891 -5.78339 -2.13265
4.18424 -6.39042 -2.1701
4.66193 -7.10859 -2.20811
4.74106 -7.22927 -2.03407
-0.000184583 -0.142959 -0.0151109
6.89174 -10.4585 -2.35073
7.51312 -11.2868 -2.22134
7.52464 -11.3078 -1.90545
7.51916 -11.3076 -1.58497
7.50931 -11.301 -1.26803
7.51395 -11.3117 -0.954535
7.50705 -11.3095 -0.640725
-0.000184583 -0.142959 -0.0151109
-0.000184583 -0.142959 -0.0151109
-0.000184583 -0.142959 -0.0151109
-0.000184583 -0.142959 -0.0151109
-0.000184583 -0.142959 -0.0151109
-0.000184583 -0.142959 -0.0151109
-0.000184583 -0.142959 -0.0151109
-0.000184583 -0.142959 -0.0151109
-0.000184583 -0.142959 -0.0151109
-0.000184583 -0.142959 -0.0151109
0.325851 -0.632369 -0.363893
0.335887 -0.647837 -0.355914
0.371379 -0.701415 -0.371777
0.404397 -0.75146 -0.381998
0.454788 -0.827767 -0.404275
2.49321 -3.90013 -2.02208
2.66666 -4.16283 -2.02937
2.88927 -4.50163 -2.05636
3.13943 -4.88245 -2.08348
3.41649 -5.30241 -2.10518
3.74425 -5.80146 -2.13139
4.15021 -6.41952 -2.17168
4.62595 -7.14147 -2.21007
4.73862 -7.31707 -2.05106
4.86877 -7.51944 -1.89249
-0.00024851 -0.142557 -0.0150687
7.50242 -11.4101 -2.23713
7.51419 -11.436 -1.91954
7.50865 -11.4315 -1.59624
7.50331 -11.4316 -1.27777
7.50054 -11.4356 -0.961134
7.49779 -11.4354 -0.64528
-0.00024851 -0.142557 -0.0150687
-0.00024851 -0.142557 -0.0150687
-0.00024851 -0.142557 -0.0150687
-0.00024851 -0.142557 -0.0150687
-0.00024851 -0.142557 -0.0150687
-0.00024851 -0.142557 -0.0150687
-0.00024851 -0.142557 -0.0150687
-0.00024851 -0.142557 -0.0150687
-0.00024851 -0.142557 -0.0150687
-0.00024851 -0.142557 -0.0150687
0.323851 -0.635365 -0.364872
0.33094 -0.646466 -0.353906
0.369031 -0.704669 -0.372669
0.401752 -0.754933 -0.382849
0.456666 -0.839172 -0.409367
2.4728 -3.91749 -2.02365
