ply
format ascii 1.0
comment Created by Open3D
element vertex 1797
property double x
property double y
property double z
end_header
-5.71382 4.52019 -1.81243
-6.44014 5.14297 -1.83307
-7.25081 5.84049 -1.83057
-8.40106 6.7665 -1.84383
-9.0276 7.30091 -1.6983
-10.5918 8.63516 -1.65797
-12.6733 10.4113 -1.58856
-18.3809 15.2694 -1.728
-0.00323014 -0.361771 -0.028062
-18.3067 15.2223 -0.598948
-0.00323014 -0.361771 -0.028062
-16.2714 13.5084 0.456933
-16.3655 13.5934 0.963382
-16.644 13.8405 1.4901
-15.3472 12.7381 1.84341
-15.6149 12.9758 2.36212
-16.7353 13.9429 3.05381
-16.5765 13.8119 3.54292
-16.9369 14.13 4.15901
-0.433829 0.00823319 -0.364996
-0.430274 0.00547137 -0.344767
-0.470399 0.0402349 -0.35605
-0.520791 0.0836477 -0.371198
-2.8005 2.04568 -1.77725
-2.97365 2.19647 -1.77582
-3.15791 2.35699 -1.77003
-3.38212 2.55116 -1.7727
-3.6385 2.7743 -1.77829
-3.94119 3.03768 -1.78886
-4.24897 3.30587 -1.7819
-4.63577 3.64132 -1.78707
-5.11191 4.05571 -1.79979
-5.68622 4.55562 -1.81284
-6.40052 5.17753 -1.83134
-7.21982 5.88892 -1.832
-8.35219 6.80596 -1.84182
-9.02835 7.39178 -1.70663
-10.5232 8.67903 -1.6551
-12.5736 10.4485 -1.58362
-18.3691 15.4431 -1.73521
-17.6955 14.8738 -1.1292
-0.00320738 -0.361467 -0.0280378
-0.00320738 -0.361467 -0.0280378
-16.1458 13.5631 0.455671
-16.3641 13.7611 0.968454
-15.4851 13.0068 1.39147
-15.5675 13.0872 1.88009
-15.591 13.1168 2.37077
-16.0374 13.5122 2.9405
-17.1443 14.4749 3.68426
-0.00320738 -0.361467 -0.0280378
-0.42635 0.00678417 -0.360875
-0.421474 0.00277865 -0.339829
-0.469405 0.0445659 -0.356957
-0.5194 0.0883754 -0.372062
-0.564687 0.127941 -0.38093
-2.95709 2.21327 -1.77496
-3.13749 2.37238 -1.76767
-3.36195 2.56907 -1.7712
-3.62125 2.79746 -1.77893
-3.91441 3.05447 -1.78561
-4.22774 3.33066 -1.78185
-4.61044 3.66783 -1.78647
-5.08635 4.08544 -1.79974
-5.65633 4.58738 -1.81232
-6.35771 5.20327 -1.82795
-7.18368 5.93081 -1.83194
-8.29929 6.84945 -1.8398
-9.03445 7.49108 -1.71633
-10.4693 8.74481 -1.65526
-12.4878 10.5084 -1.58111
-19.3116 16.455 -1.83194
-13.4194 11.3313 -0.86727
-0.00319896 -0.361029 -0.0280034
-0.00319896 -0.361029 -0.0280034
-16.2286 13.8037 0.46076
-16.2644 13.8397 0.967447
-15.6549 13.3167 1.41455
-15.3698 13.0721 1.8654
-0.00319896 -0.361029 -0.0280034
-16.0318 13.67 2.95446
-9.85095 8.26231 2.11551
-9.84458 8.26261 2.43027
-0.422962 0.00830197 -0.359829
-0.422065 0.00776319 -0.341762
-0.459101 0.0404631 -0.351291
-0.512833 0.0880375 -0.369339
-0.568719 0.137418 -0.385182
-2.94265 2.23008 -1.77492
-3.12079 2.38897 -1.76686
-3.34138 2.58456 -1.76896
-3.59933 2.81426 -1.77683
-3.89095 3.07285 -1.78364
-4.20419 3.35205 -1.78061
-4.5836 3.69014 -1.78476
-5.05564 4.10904 -1.79766
-5.62421 4.61542 -1.81088
-6.31769 5.23121 -1.8254
-7.13964 5.96338 -1.82965
-8.24557 6.88439 -1.83681
-9.04558 7.59025 -1.7266
-0.0031762 -0.360725 -0.0279792
-12.4164 10.5691 -1.57973
-17.1812 14.7696 -1.64068
-0.0031762 -0.360725 -0.0279792
-17.2068 14.8076 -0.572428
-0.0031762 -0.360725 -0.0279792
-16.0578 13.8139 0.458093
-16.1025 13.858 0.962478
-9.84038 8.33329 0.883182
-9.83536 8.33173 1.1895
-9.81881 8.32304 1.49769
-9.79858 8.31105 1.80369
-9.81589 8.3293 2.11849
-9.82566 8.34393 2.43772
-0.423345 0.0134247 -0.361842
-0.421145 0.0117593 -0.342712
-0.463342 0.0493987 -0.35596
-0.511479 0.0925963 -0.370207
-0.567034 0.142476 -0.386004
-2.92034 2.24176 -1.77081
-3.10311 2.40664 -1.76604
-3.3219 2.60396 -1.7682
-3.58189 2.83724 -1.77747
-3.86854 3.09574 -1.78295
-4.17717 3.37418 -1.77877
-4.55951 3.71762 -1.78471
-5.02243 4.13497 -1.79558
-5.59312 4.64779 -1.81036
-6.27909 5.26617 -1.82409
-7.08031 5.98883 -1.82439
-8.18475 6.91786 -1.83284
-9.04999 7.6902 -1.73631
-9.757 8.32527 -1.55982
-12.341 10.6338 -1.57833
-17.2699 15.031 -1.65744
-17.1107 14.8996 -1.10891
-0.0032192 -0.360319 -0.0279479
-9.81655 8.40206 -0.034757
-9.79464 8.38846 0.270108
-9.7689 8.37144 0.576172
-9.77821 8.38264 0.882289
-9.78653 8.39609 1.19014
-15.093 13.1547 2.33036
-15.6552 13.6629 2.91445
-16.9591 14.8414 3.70138
-17.8207 15.6248 4.46925
-0.417362 0.012831 -0.358742
-0.419023 0.014569 -0.342679
-0.458353 0.0501387 -0.354043
-0.512802 0.0994857 -0.37287
-0.569488 0.150871 -0.389403
-2.90803 2.26138 -1.77239
-3.0843 2.42236 -1.76446
-3.30201 2.62096 -1.76669
-3.56056 2.85561 -1.77606
-3.84855 3.11828 -1.78291
-4.15555 3.39849 -1.77873
-4.52734 3.73641 -1.78135
-4.99073 4.15906 -1.7935
-5.5599 4.67639 -1.80892
-6.23065 5.28818 -1.81944
-7.02911 6.01673 -1.82062
-8.13384 6.95732 -1.83082
-9.04763 7.78234 -1.74462
-9.69797 8.37375 -1.55835
-9.75716 8.4331 -1.25993
-9.76697 8.44486 -0.954075
-9.76247 8.44674 -0.647726
-9.75123 8.44264 -0.339621
-9.76738 8.46014 -0.034688
-0.00321077 -0.359881 -0.0279134
-16.0955 14.1962 0.97281
-0.00321077 -0.359881 -0.0279134
-16.5206 14.5959 2.03936
-14.8058 13.0523 2.29761
-15.6973 13.8648 2.93783
-16.7397 14.8198 3.67239
-17.7255 15.7249 4.46862
-0.41905 0.0190769 -0.361773
-0.416836 0.017276 -0.342652
-0.457279 0.054231 -0.354958
-0.510246 0.102864 -0.372834
-0.551869 0.14117 -0.379944
-2.89021 2.27602 -1.77072
-3.06284 2.43546 -1.76133
-3.28481 2.64025 -1.76665
-3.53647 2.87143 -1.77327
-3.82147 3.13438 -1.77965
-4.13244 3.42153 -1.77808
-4.50224 3.76146 -1.78075
-4.96322 4.18682 -1.79294
-5.52215 4.70081 -1.80609
-6.19224 5.31906 -1.81772
-6.97775 6.04415 -1.81685
-8.07989 6.99374 -1.82816
-9.04592 7.87597 -1.75322
-9.63425 8.41776 -1.55618
-9.7064 8.48958 -1.25985
-9.73965 8.5228 -0.956256
-17.04 15.1934 -1.11549
-0.00318802 -0.359577 -0.0278893
-31.8476 28.7407 -0.0499441
-19.1353 17.1358 0.560764
-18.9047 16.9366 1.15379
-0.00318802 -0.359577 -0.0278893
-14.6823 13.0865 1.81904
-14.7077 13.1189 2.29447
-0.00318802 -0.359577 -0.0278893
-17.1493 15.3728 3.78304
-17.6484 15.8417 4.47279
-0.423193 0.0276685 -0.366847
-0.41722 0.0223922 -0.344581
-0.454848 0.0572386 -0.354925
-0.508827 0.10732 -0.373703
-0.54367 0.139793 -0.376486
-0.548045 0.144015 -0.358503
-3.05073 2.45717 -1.7636
-3.26468 2.65697 -1.76515
-3.51914 2.89333 -1.77391
-3.79991 3.15541 -1.77896
-4.10636 3.44174 -1.77624
-4.46997 3.77987 -1.77739
-4.93264 4.21168 -1.79137
-5.4915 4.7316 -1.80558
-6.14511 5.3417 -1.81349
-6.9292 6.07389 -1.81382
-8.02573 7.02985 -1.82549
-9.04493 7.97133 -1.76208
-9.60253 8.49102 -1.55914
-12.0935 10.7952 -1.57098
-0.00323101 -0.359171 -0.027858
-17.0632 15.3961 -1.12263
-29.8192 27.1953 -0.991079
-31.7514 28.9905 -0.0498263
-18.5792 16.8252 0.546803
-15.2421 13.7476 0.929977
-15.5092 13.9996 1.43914
-14.8923 13.4377 1.85553
-14.5585 13.1376 2.28323
-15.6617 14.1654 2.96272
-16.3683 14.8312 3.62896
-17.7881 16.1602 4.53272
-0.410866 0.0210543 -0.358649
-0.406077 0.0168529 -0.337684
-0.453789 0.0614662 -0.35583
-0.513993 0.11789 -0.379064
-0.539419 0.14202 -0.375599
-0.542369 0.145068 -0.356847
-3.0331 2.47379 -1.76279
-3.24454 2.67355 -1.76365
-3.49153 2.90681 -1.76976
-3.78099 3.17891 -1.77956
-4.07467 3.45653 -1.77202
-4.44532 3.8067 -1.77734
-4.90059 4.23512 -1.78929
-5.45265 4.75645 -1.80275
-6.10259 5.37037 -1.81094
-6.88378 6.10853 -1.8119
-7.9701 7.06428 -1.82249
-9.03734 8.06433 -1.77012
-9.58764 8.58041 -1.56489
-11.9955 10.8338 -1.56661
-16.001 14.5822 -1.56962
-23.0479 21.1708 -1.51449
-0.00315684 -0.358835 -0.0278307
-33.4724 30.9523 -0.0509638
-18.2886 16.7533 0.540964
-18.4022 16.8713 1.13494
-15.5882 14.2459 1.45489
-14.6373 13.3642 1.83364
-14.6471 13.3779 2.30992
-14.5946 13.3379 2.77449
-16.1354 14.7946 3.59706
-0.00315684 -0.358835 -0.0278307
-0.414854 0.0297448 -0.363723
-0.406411 0.0220022 -0.339615
-0.446095 0.0595975 -0.352043
-0.503377 0.114003 -0.373637
-0.527259 0.136902 -0.369569
-0.534154 0.143567 -0.353554
-3.00951 2.48573 -1.75889
-3.22378 2.69053 -1.76215
-3.4727 2.9273 -1.76971
-3.7489 3.19127 -1.77438
-4.0492 3.47843 -1.77077
-4.41429 3.82596 -1.77453
-4.86901 4.26048 -1.78771
-5.41466 4.78016 -1.79992
-6.06521 5.40178 -1.80963
-6.8236 6.12677 -1.8059
-7.90866 7.09554 -1.81853
-9.03044 8.15602 -1.77815
-10.0097 9.08614 -1.64146
-11.9188 10.8956 -1.56521
-15.9509 14.7088 -1.57303
-17.8997 16.5615 -1.18872
-0.00319984 -0.358429 -0.0277994
-29.3243 27.3906 -0.0480475
-30.6604 28.6748 0.93132
-15.4618 14.2912 0.954688
-15.5385 14.3687 1.45831
-13.9396 12.862 1.75465
-14.6389 13.5347 2.32182
-14.4063 13.3185 2.75351
-15.5772 14.4404 3.49081
-30.1303 28.2884 7.78333
-0.403934 0.0241878 -0.356544
-0.404223 0.0247088 -0.339583
-0.447557 0.0662612 -0.354825
-0.495475 0.112279 -0.370015
-0.51524 0.131549 -0.363541
-0.531275 0.147008 -0.353521
-2.99445 2.50472 -1.75961
-3.20753 2.71072 -1.76283
-3.45235 2.94625 -1.76898
-3.72562 3.21045 -1.77306
-4.02429 3.49939 -1.76954
-4.38596 3.84776 -1.77282
-4.83676 4.28347 -1.78563
-5.3864 4.81297 -1.80033
-6.02206 5.42749 -1.80665
-6.77908 6.15953 -1.80398
-7.85416 7.13042 -1.81586
-9.02139 8.24659 -1.7859
-9.9508 9.13983 -1.64069
-11.835 10.9465 -1.56271
-16.9397 15.8291 -1.67775
-17.7615 16.626 -1.18597
-28.9004 27.298 -0.976361
-29.3633 27.7503 -0.0480209
-30.3238 28.6895 0.926175
-18.1649 17.0529 1.13295
-15.5629 14.5634 1.46894
-16.112 15.1004 2.04394
-14.4567 13.5214 2.30548
-14.4373 13.5073 2.77496
-15.1644 14.2156 3.41656
-17.6897 16.6546 4.58328
-0.411577 0.0364134 -0.364681
-0.401919 0.0273455 -0.339554
-0.455265 0.078981 -0.362314
-0.487624 0.110522 -0.36639
-0.508487 0.131048 -0.360944
-0.51912 0.141472 -0.347792
-2.97922 2.52354 -1.76034
-3.18713 2.72688 -1.76134
-3.42651 2.95995 -1.76551
-3.70095 3.2283 -1.77109
-3.99781 3.51884 -1.7677
-4.35888 3.87056 -1.77167
-4.80576 4.30758 -1.78406
-5.34668 4.8347 -1.79705
-5.97876 5.45285 -1.80368
-6.72871 6.18649 -1.80058
-7.79526 7.1608 -1.81222
-9.00722 8.33312 -1.79281
-9.89166 9.19322 -1.63991
-11.7482 10.9941 -1.55982
-16.7645 15.8478 -1.66963
-17.6462 16.7118 -1.18473
-0.00316866 -0.357687 -0.0277408
-30.1003 28.7904 -0.0484738
-29.9908 28.7039 0.921114
-18.1418 17.2327 1.13805
-0.00316866 -0.357687 -0.0277408
-14.5351 13.7492 1.85167
-0.00316866 -0.357687 -0.0277408
-14.4353 13.6665 2.79032
-15.3986 14.6126 3.48939
-17.4914 16.6592 4.55717
-0.401896 0.031877 -0.358527
-0.399731 0.030052 -0.33952
-0.446406 0.0757599 -0.357585
-0.477237 0.106198 -0.360967
-0.496674 0.125563 -0.35491
-0.513636 0.142256 -0.346132
-0.527813 0.156496 -0.334871
-3.16926 2.74559 -1.76129
-3.40603 2.97869 -1.76478
-3.67754 3.24728 -1.76976
-3.97132 3.53816 -1.76586
-4.33169 3.89328 -1.77052
-4.7733 4.33013 -1.78197
-5.3098 4.85905 -1.79468
-5.93404 5.47662 -1.80029
-6.6853 6.22001 -1.79903
-7.74198 7.19637 -1.80988
-8.97264 8.40052 -1.79581
-9.82795 9.24208 -1.63844
-11.6613 11.0411 -1.55693
-14.9664 14.2774 -1.50164
-17.6175 16.8819 -1.18924
-0.00321165 -0.357281 -0.0277095
-29.7747 28.8097 -0.0481967
-29.6672 28.724 0.916329
-14.5602 13.9235 0.913227
-14.2536 13.6272 1.35859
-14.2249 13.6085 1.82202
-13.878 13.277 2.23744
-0.00321165 -0.357281 -0.0277095
-16.2956 15.6689 3.71547
-17.3468 16.7145 4.54509
-0.40458 0.0394437 -0.362575
-0.396276 0.0314694 -0.338509
-0.44638 0.0811338 -0.359435
-0.474535 0.109235 -0.36094
-0.493869 0.128666 -0.354887
-0.501585 0.136654 -0.3404
-0.514422 0.14954 -0.328662
-3.14479 2.75767 -1.7576
-3.38349 2.99652 -1.76337
-3.65667 3.26878 -1.76971
-3.9516 3.56409 -1.767
-4.30373 3.91663 -1.76936
-4.74622 4.35793 -1.78192
-5.27735 4.88939 -1.79417
-5.89518 5.50797 -1.79898
-6.63921 6.25304 -1.79711
-7.68562 7.22865 -1.80689
-8.91765 8.45111 -1.79519
-9.75976 9.28635 -1.63627
-11.5657 11.0791 -1.55293
-14.8396 14.327 -1.4976
-15.6581 15.1422 -1.0658
-0.0031889 -0.356978 -0.0276853
-29.4121 28.7989 -0.0478987
-29.3473 28.7442 0.911634
-0.0031889 -0.356978 -0.0276853
-14.1547 13.6965 1.35717
-13.7674 13.321 1.77313
-13.8597 13.4173 2.24748
-0.0031889 -0.356978 -0.0276853
-28.9113 28.4185 6.65321
-15.56 15.1335 4.09755
-0.402172 0.0421464 -0.362547
-0.397657 0.0379035 -0.341417
-0.442578 0.0829211 -0.358462
-0.465467 0.106161 -0.356411
-0.48722 0.128097 -0.352279
-0.497473 0.138649 -0.33955
-0.506111 0.147678 -0.325545
-3.12678 2.77604 -1.75756
-3.36148 3.01372 -1.76195
-3.62773 3.28212 -1.76581
-3.92484 3.583 -1.76517
-4.27494 3.93758 -1.76766
-4.71489 4.38139 -1.78035
-5.23605 4.90906 -1.79041
-5.85815 5.53698 -1.79768
-6.58971 6.27784 -1.79371
-7.6335 7.2676 -1.80519
-8.86817 8.50418 -1.79539
-9.68972 9.33181 -1.6341
-11.4807 11.131 -1.5506
-14.9126 14.5707 -1.51324
-15.6223 15.2918 -1.06946
-27.6213 27.3224 -0.954439
-29.1293 28.8535 -0.0476522
-15.7438 15.4401 0.47928
-14.8529 14.551 0.943388
-0.00318047 -0.356539 -0.0276508
-13.5896 13.2964 1.75992
-13.7409 13.4578 2.2411
-13.8644 13.5914 2.72625
-16.7219 16.4723 3.85792
-28.5213 28.369 7.57844
-0.399971 0.0447172 -0.362519
-0.389301 0.0342011 -0.336489
-0.438866 0.0845063 -0.357489
-0.45404 0.100119 -0.350099
-0.479442 0.126015 -0.348823
-0.486985 0.133989 -0.334631
-0.501985 0.14954 -0.324742
-3.1066 2.79119 -1.75606
-3.34383 3.03408 -1.76259
-3.60603 3.30135 -1.76513
-3.89878 3.60117 -1.76333
-4.24414 3.95494 -1.76484
-4.68562 4.4053 -1.77928
-5.21206 4.94416 -1.79221
-5.81422 5.5588 -1.79429
-6.54427 6.30651 -1.79142
-7.57275 7.29228 -1.8009
-8.80043 8.53557 -1.79169
-9.62988 9.38054 -1.63309
-11.3898 11.1684 -1.54697
-16.0543 15.8947 -1.63592
-14.4666 14.2972 -0.997721
-27.2304 27.2376 -0.946315
-28.807 28.8553 -0.0473764
-15.7114 15.5851 0.481201
-14.5549 14.4163 0.929377
-13.6262 13.4829 1.32091
-13.5355 13.3952 1.76297
-15.5022 15.4044 2.54657
-28.3647 28.5036 5.63926
-14.7811 14.6862 3.42643
-0.00322347 -0.356133 -0.0276195
-0.394011 0.0438183 -0.359419
-0.395518 0.0456521 -0.343316
-0.434999 0.0861907 -0.356518
-0.457578 0.109635 -0.354552
-0.471406 0.124097 -0.345366
-0.480203 0.133226 -0.332162
-0.490004 0.143623 -0.319308
-0.517854 0.172603 -0.316025
-3.32632 3.05701 -1.76391
-3.58227 3.32234 -1.76443
-3.86787 3.61844 -1.7603
-4.21445 3.97631 -1.76313
-4.65244 4.43008 -1.7777
-5.16147 4.9558 -1.78568
-5.76706 5.58341 -1.79089
-6.49795 6.34103 -1.78988
-7.51892 7.32896 -1.79888
-8.72675 8.5668 -1.78743
-9.54552 9.41091 -1.62859
-11.3059 11.2204 -1.54483
-15.8642 15.8945 -1.62639
-14.3501 14.3532 -0.995642
-27.0361 27.378 -0.945299
-28.4949 28.8843 -0.0471115
-28.3884 28.7946 0.897593
-16.8093 16.9151 1.08467
-12.9887 12.9932 1.26572
-13.6372 13.6693 1.78784
-13.3459 13.3789 2.20242
-14.8246 14.906 2.95197
-16.6284 16.7751 3.88271
-15.4802 15.6028 4.14995
-0.394057 0.0488667 -0.361433
-0.393213 0.0482886 -0.343284
-0.426331 0.0827014 -0.351788
-0.451173 0.108757 -0.351827
-0.461142 0.119422 -0.340191
-0.477347 0.136361 -0.332129
-0.475623 0.134924 -0.312325
-0.514792 0.17587 -0.315998
-3.29876 3.06828 -1.75976
-3.55704 3.33909 -1.76247
-3.85023 3.64661 -1.76263
-4.18409 3.99532 -1.76088
-4.61539 4.44733 -1.77411
-5.12407 4.97887 -1.78331
-5.7246 5.60841 -1.78833
-6.45114 6.37028 -1.78759
-7.4636 7.36118 -1.79621
-8.66002 8.60165 -1.78428
-9.45597 9.43174 -1.62293
-11.2321 11.2786 -1.54382
-14.2369 14.3967 -1.4708
-14.2832 14.4547 -0.996764
-26.6983 27.3494 -0.939077
-28.19 28.9071 -0.046851
-15.4379 15.6793 0.478599
-15.3812 15.6312 0.996344
-0.00319229 -0.355391 -0.0275609
-13.6542 13.85 1.80106
-13.8568 14.0707 2.30177
-16.4565 16.7834 3.29994
-27.6791 28.4929 6.521
-15.3404 15.6423 4.13712
-0.389336 0.0489885 -0.359361
-0.393209 0.0533637 -0.345218
-0.425037 0.086789 -0.352696
-0.44482 0.107846 -0.349099
-0.457157 0.121043 -0.339309
-0.46818 0.132945 -0.328025
-0.470198 0.135241 -0.310757
-0.505348 0.172516 -0.312319
-3.27454 3.08409 -1.75766
-3.53445 3.35861 -1.76178
-3.82313 3.66487 -1.7608
-4.15688 4.0191 -1.76027
-4.58633 4.47288 -1.77354
-5.08697 5.00382 -1.78142
-5.68644 5.63977 -1.78744
-6.40838 6.40591 -1.78679
-7.40947 7.3944 -1.79387
-8.59715 8.64325 -1.78225
-9.37339 9.45922 -1.61842
-11.1428 11.3204 -1.54074
-15.5106 15.9093 -1.6096
-14.2968 14.6411 -1.00344
-26.3755 27.3323 -0.933324
-26.5391 27.5228 -0.0456718
-15.4707 15.9001 0.482839
-15.1196 15.5418 0.985108
-13.7925 14.156 1.36278
-13.4215 13.7752 1.78119
-27.5027 28.6129 4.62432
-27.4316 28.5576 5.55432
-13.6323 14.0213 3.21756
-15.133 15.6095 4.10583
-0.389345 0.0542054 -0.361368
-0.383651 0.0484745 -0.339302
-0.418737 0.0858347 -0.349842
-0.439567 0.10818 -0.347275
-0.450648 0.12024 -0.336702
-0.46032 0.130636 -0.324738
-0.457176 0.127614 -0.304553
-0.500898 0.174443 -0.311563
-3.25854 3.10741 -1.75966
-3.50844 3.37572 -1.75981
-3.78744 3.67531 -1.75538
-4.12765 4.03903 -1.75857
-4.55231 4.49469 -1.77146
-5.05332 5.03055 -1.78044
-5.64645 5.66716 -1.78571
-6.35999 6.4331 -1.78412
-7.35108 7.42565 -1.79088
-8.5275 8.67426 -1.77855
-9.28904 9.48754 -1.61392
-11.0597 11.3722 -1.53879
-15.3414 15.9189 -1.60177
-17.2443 17.9502 -1.21197
-0.00321253 -0.354682 -0.0275055
-27.5429 28.9136 -0.0463067
-16.356 17.0364 0.515561
-0.00321253 -0.354682 -0.0275055
-13.6977 14.2239 1.36177
-13.3698 13.8845 1.78535
-27.2093 28.6471 4.6039
-14.1657 14.7475 2.87238
-13.5277 14.0769 3.21248
-15.82 16.5344 4.32092
-0.384558 0.0542242 -0.359298
-0.384863 0.0548716 -0.342211
-0.41021 0.0821107 -0.345115
-0.4332 0.107133 -0.344549
-0.43924 0.113914 -0.330675
-0.456232 0.132326 -0.32389
-0.455641 0.131989 -0.305289
-0.495332 0.175002 -0.310071
-3.22703 3.1141 -1.75345
-3.483 3.39203 -1.75784
-3.76288 3.69608 -1.75473
-4.10099 4.06173 -1.75796
-4.52035 4.51694 -1.76989
-5.01826 5.05567 -1.779
-5.60502 5.69269 -1.78358
-6.31404 6.4627 -1.78221
-7.29407 7.4553 -1.78789
-8.4645 8.712 -1.77625
-9.21597 9.52386 -1.61105
-10.9771 11.4201 -1.53665
-15.1726 15.927 -1.59395
-14.7304 15.4632 -1.04539
-25.8347 27.4083 -0.925521
-27.2377 28.9258 -0.0460433
-27.1663 28.8688 0.880302
-15.622 16.4604 1.03208
-13.3147 13.9812 1.33137
-12.8988 13.5428 1.7324
-13.407 14.1001 2.26851
-16.1844 17.1009 3.30638
-13.6951 14.4257 3.27304
-16.7907 17.7795 4.61654
-0.376425 0.0505098 -0.35416
-0.380127 0.0548635 -0.340219
-0.412434 0.0899498 -0.348847
-0.42937 0.108651 -0.343621
-0.434075 0.114053 -0.328937
-0.448526 0.129918 -0.320602
-0.450319 0.13224 -0.303715
-0.494774 0.180977 -0.311493
-3.20314 3.12883 -1.75135
-3.45884 3.40959 -1.75651
-3.73819 3.71665 -1.75409
-4.0677 4.07717 -1.7546
-4.48955 4.54039 -1.76882
-4.98042 5.07772 -1.77663
-5.56746 5.72237 -1.78269
-6.26142 6.48483 -1.77844
-7.23425 7.48161 -1.78424
-8.40142 8.74936 -1.77394
-9.14946 9.56694 -1.60934
-10.8753 11.4469 -1.53189
-15.0056 15.9353 -1.58625
-17.0309 18.1469 -1.21164
-0.00318135 -0.35394 -0.0274469
-27.0496 29.0619 -0.0458682
-26.9988 29.0267 0.880513
-15.4114 16.4268 1.02444
-16.8006 17.9459 1.69806
-14.8701 15.8537 2.01423
-15.1813 16.2042 2.58885
-13.9251 14.8388 2.85899
-12.858 13.6837 3.09078
-12.9863 13.8335 3.58677
-0.380982 0.0606491 -0.360254
-0.382504 0.0626156 -0.344106
-0.403907 0.0862251 -0.344111
-0.419454 0.10359 -0.338196
-0.430141 0.11564 -0.328043
-0.435869 0.122033 -0.314056
-0.441328 0.128436 -0.299819
-0.490413 0.182703 -0.31074
-3.1843 3.14893 -1.752
-3.43321 3.42559 -1.75454
-3.7108 3.73422 -1.75225
-4.04078 4.09946 -1.754
-4.45481 4.55942 -1.76623
-4.94908 5.10667 -1.77658
-5.52576 5.74749 -1.78054
-6.21265 6.51096 -1.77577
-0.00322434 -0.353534 -0.0274157
-8.33681 8.78477 -1.77136
-9.07347 9.59929 -1.606
-10.7965 11.498 -1.53032
-14.8349 15.9377 -1.57815
-16.955 18.2791 -1.21369
-25.1647 27.3216 -0.912943
-26.7451 29.0696 -0.0456077
-15.889 17.1369 0.510342
-0.00322434 -0.353534 -0.0274157
-14.9707 16.1424 1.51992
-26.3767 28.733 3.61756
-13.1462 14.1513 2.25251
-16.7268 18.109 3.46197
-13.2273 14.2555 3.20081
-0.00322434 -0.353534 -0.0274157
-0.378612 0.0631826 -0.360224
-0.377753 0.062472 -0.342122
-0.395468 0.082299 -0.339384
-0.416892 0.106391 -0.338163
-0.428694 0.11982 -0.328868
-0.434333 0.126412 -0.314833
-0.436043 0.128518 -0.298248
-0.479811 0.177572 -0.306337
-3.16225 3.16679 -1.75126
-3.40762 3.44142 -1.75257
-3.68721 3.75587 -1.7522
-4.01174 4.12089 -1.75284
-4.42774 4.58682 -1.76668
-4.90878 5.12765 -1.77374
-5.48422 5.77471 -1.77882
-6.15875 6.53348 -1.772
-7.10781 7.52557 -1.77533
-8.26124 8.81096 -1.76681
-8.99865 9.63249 -1.60291
-10.7186 11.5499 -1.52893
-14.6672 15.9473 -1.57059
-16.9422 18.4823 -1.22025
-24.9888 27.4487 -0.912214
-26.4311 29.0735 -0.0453409
-15.6932 17.1229 0.507223
-29.9999 33.0809 2.04691
-13.3356 14.5171 1.36008
-26.0761 28.7471 3.59998
-0.00315017 -0.353198 -0.0273884
-0.00315017 -0.353198 -0.0273884
-13.7008 14.9608 3.33866
-13.1797 14.3829 3.68781
-0.376139 0.0657818 -0.360192
-0.37065 0.059922 -0.338164
-0.394058 0.0863164 -0.340293
-0.41411 0.109188 -0.338133
-0.424746 0.121272 -0.327981
-0.430333 0.127899 -0.313987
-0.433224 0.131484 -0.298215
-0.478019 0.182109 -0.307031
-3.13562 3.17824 -1.74779
-3.38448 3.45998 -1.75188
-3.66349 3.77746 -1.75215
-3.98204 4.13996 -1.75114
-4.39918 4.61252 -1.76664
-4.87458 5.15327 -1.77277
-5.44607 5.80125 -1.77751
-6.11625 6.56368 -1.77083
-7.04909 7.55471 -1.77234
-0.00319316 -0.352792 -0.0273571
-8.93002 9.67577 -1.60119
-10.6385 11.6033 -1.52753
-14.5081 15.9588 -1.56361
-16.923 18.6874 -1.22672
-24.6703 27.4147 -0.906423
-26.1523 29.103 -0.045099
-15.5507 17.1727 0.506016
-25.9572 28.9128 1.77915
-15.5774 17.2205 1.604
-13.3808 14.7469 1.84556
-15.6133 17.2788 2.71575
-14.1119 15.5939 2.95529
-16.9141 18.7674 4.15458
-13.3249 14.7195 3.75329
-0.371557 0.0656685 -0.358118
-0.370646 0.0649966 -0.34009
-0.389254 0.0862114 -0.338382
-0.403273 0.102477 -0.331813
-0.4184 0.119929 -0.325384
-0.428821 0.131973 -0.314774
-0.426809 0.130057 -0.295871
-0.470023 0.17962 -0.304085
-3.11463 3.19469 -1.74706
-3.36244 3.47976 -1.75184
-3.6296 3.78737 -1.74733
-3.94928 4.15374 -1.74778
-4.36032 4.62654 -1.76252
-4.83602 5.17198 -1.76994
-5.40666 5.82845 -1.7762
-6.06206 6.58287 -1.76668
-6.97608 7.56178 -1.76512
-8.11484 8.85723 -1.75774
-8.88164 9.73475 -1.60252
-10.5571 11.6465 -1.52539
-13.0888 14.5297 -1.42198
-15.5808 17.3758 -1.13847
-15.5574 17.3612 -0.585178
-15.5021 17.3041 -0.037829
-15.3972 17.1965 0.504209
-15.417 17.2311 1.05265
-15.3935 17.2101 1.5951
-15.2523 17.0608 2.1217
-0.00323616 -0.352386 -0.0273258
-14.0696 15.7265 2.96538
-15.2981 17.1427 3.77992
-16.758 18.8256 4.75898
-0.364611 0.0630071 -0.354
-0.362519 0.0608569 -0.335161
-0.382135 0.083538 -0.334588
-0.39242 0.0956299 -0.3255
-0.41567 0.122693 -0.325352
-0.423486 0.132081 -0.313115
-0.42766 0.137078 -0.298152
-0.468166 0.184054 -0.304784
-3.09101 3.2106 -1.74565
-3.33782 3.49661 -1.7505
-3.60821 3.81147 -1.74847
-3.91874 4.17319 -1.74607
-4.3278 4.64756 -1.76095
-4.79805 5.19501 -1.76804
-5.36346 5.85337 -1.77406
-6.01438 6.61169 -1.76476
-6.93425 7.60666 -1.76603
-8.05484 8.89966 -1.75655
-8.82995 9.79366 -1.6036
-10.4748 11.6924 -1.52344
-12.9767 14.5805 -1.41935
-15.4221 17.4008 -1.13431
-15.404 17.392 -0.583221
-15.3839 17.381 -0.0377107
-15.2723 17.2581 0.503505
-15.3312 17.3382 1.05387
-15.3255 17.3437 1.5991
-0.00316198 -0.35205 -0.0272985
-15.2102 17.2283 2.68057
-15.8559 17.9873 3.36865
-13.4329 15.1948 3.33864
-12.765 14.4265 3.64267
-0.371122 0.075958 -0.362136
-0.35434 0.0567499 -0.330227
-0.374899 0.0807947 -0.330797
-0.388576 0.0970118 -0.324565
-0.4164 0.129663 -0.327887
-0.423 0.137732 -0.31471
-0.421143 0.135718 -0.295809
-0.455303 0.175913 -0.298922
-3.06737 3.22637 -1.74423
-3.30753 3.50805 -1.74661
-3.57964 3.82878 -1.74664
-3.89177 4.19672 -1.74602
-4.29676 4.67205 -1.76039
-4.7638 5.2223 -1.76752
-5.32403 5.8825 -1.77317
-5.9704 6.64461 -1.76396
-6.89591 7.65853 -1.76824
-8.01142 8.96121 -1.75898
-8.72942 9.79948 -1.59631
-10.3888 11.7381 -1.5213
-12.8359 14.597 -1.41363
-15.3346 17.5136 -1.13551
-15.3322 17.5229 -0.584339
-15.3447 17.5499 -0.0376373
-15.0321 17.1908 0.498877
-25.0708 28.9285 1.75325
-0.00320498 -0.351644 -0.0272672
-14.8051 16.9613 2.08772
-15.1172 17.3322 2.68276
-14.9672 17.1687 3.20061
-14.8972 17.0986 3.73164
-13.3673 15.3112 3.84263
-0.367471 0.0770631 -0.361088
-0.35876 0.0671056 -0.336079
-0.371246 0.081906 -0.32983
-0.388331 0.102375 -0.326327
-0.407774 0.125596 -0.323568
-0.419154 0.139121 -0.31386
-0.420709 0.141329 -0.297318
-0.44863 0.174661 -0.296702
-3.04611 3.24241 -1.7435
-3.28765 3.53032 -1.74785
-3.54939 3.84243 -1.7436
-3.85761 4.20846 -1.7421
-4.26651 4.69561 -1.75983
-4.72251 5.23731 -1.76377
-5.28656 5.90949 -1.77228
-5.9236 6.66921 -1.76167
-6.85355 7.70303 -1.76914
-7.94897 8.9941 -1.75668
-8.6759 9.85605 -1.59717
-10.3035 11.7799 -1.51898
-12.7316 14.6445 -1.41129
-16.4359 19.0219 -1.22304
-16.5813 19.2068 -0.633692
-24.9222 29.0568 -0.0440611
-24.849 28.9904 0.848626
-14.6083 16.9084 1.01727
-0.0031308 -0.351308 -0.0272398
-14.5372 16.8419 2.06324
-16.106 18.7108 2.87983
-15.0008 17.4082 3.2293
-13.2719 15.3718 3.34369
-12.6673 14.6656 3.66503
-0.361725 0.0755914 -0.357994
-0.357489 0.0708909 -0.337025
-0.366495 0.0817676 -0.327914
-0.379964 0.0981261 -0.321804
-0.402631 0.12543 -0.32183
-0.415037 0.140538 -0.313015
-0.417927 0.144126 -0.297286
-0.437229 0.167523 -0.291578
-3.0224 3.25795 -1.74208
-3.26045 3.54379 -1.74523
-3.51653 3.85288 -1.73938
-3.82926 4.23022 -1.7415
-4.22862 4.71006 -1.75622
-4.69426 5.27152 -1.76557
-5.24057 5.93062 -1.7693
-5.87056 6.69106 -1.75826
-6.77904 7.70946 -1.76193
-7.87552 9.02026 -1.75269
-8.64386 9.93821 -1.60198
-10.2143 11.8166 -1.51609
-12.6295 14.7049 -1.40979
-16.2162 18.9881 -1.21503
-18.5048 21.7331 -0.708572
-18.4383 21.6688 -0.0396386
-24.5692 29.0016 0.844878
-15.7762 18.5083 1.10866
-14.537 17.0386 1.54772
-14.4668 16.9664 2.06797
-14.6514 17.1933 2.63554
-14.7504 17.3239 3.19778
-13.3528 15.6599 3.38843
-13.5974 15.9586 3.96365
-0.355877 0.0741851 -0.354895
-0.351625 0.0693582 -0.334051
-0.362791 0.0829117 -0.326944
-0.377271 0.100721 -0.321773
-0.39644 0.123987 -0.319224
-0.41219 0.143233 -0.312987
-0.41381 0.145547 -0.296481
-0.433059 0.16898 -0.290817
-2.99911 3.27277 -1.74066
-3.23795 3.56285 -1.74519
-3.49836 3.88085 -1.74231
-3.80282 4.25253 -1.74145
-4.19698 4.73172 -1.75515
-4.65808 5.29445 -1.76412
-5.20041 5.9542 -1.76757
-5.82733 6.71955 -1.75709
-6.7197 7.73625 -1.75894
-7.8075 9.04911 -1.74955
-8.61047 10.0233 -1.60702
-10.1291 11.862 -1.51414
-12.5298 14.7624 -1.40828
-15.9979 18.9598 -1.20728
-18.4525 21.9306 -0.711229
-18.3609 21.8352 -0.0395373
-24.2939 29.0255 0.841446
-14.8413 17.5999 1.04887
-14.8394 17.61 1.59178
-14.3483 17.0212 2.06494
-24.0711 28.8154 4.37847
-14.7391 17.519 3.21788
-14.1796 16.8463 3.6246
-13.0558 15.4939 3.83148
-0.358962 0.083164 -0.359969
-0.347066 0.0689461 -0.332061
-0.354736 0.0784494 -0.322215
-0.377012 0.105948 -0.323537
-0.390286 0.122376 -0.316628
-0.404713 0.140387 -0.309692
-0.409833 0.146733 -0.295681
-0.430006 0.171806 -0.290785
-2.97703 3.2889 -1.73993
-3.21049 3.57591 -1.74257
-3.47149 3.89827 -1.74107
-3.76654 4.26283 -1.73698
-4.16028 4.74717 -1.75206
-4.61688 5.3109 -1.76084
-5.15674 5.97769 -1.76543
-5.78029 6.74828 -1.75554
-6.66694 7.76483 -1.75692
-7.74944 9.0896 -1.74865
-8.57511 10.0992 -1.61114
-10.0506 11.9064 -1.51256
-12.4375 14.8285 -1.40762
-15.7897 18.9271 -1.19974
-18.6201 22.3989 -0.722161
-18.7696 22.5974 -0.0397698
-24.0231 29.0311 0.83778
-14.4051 17.2785 1.02471
-14.2058 17.0464 1.53366
-14.3053 17.1805 2.07392
-23.8009 28.8292 4.35989
-14.5733 17.5272 3.20411
-13.5937 16.3367 3.49923
-12.6256 15.1531 3.73073
-0.35747 0.0869485 -0.36096
-0.340192 0.0659593 -0.328107
-0.355523 0.0849651 -0.325007
-0.373139 0.107059 -0.322614
-0.386324 0.123691 -0.315735
-0.406443 0.148654 -0.312924
-0.408012 0.151001 -0.296417
-0.423421 0.170352 -0.28857
-2.95478 3.30486 -1.73921
-3.1836 3.59083 -1.7406
-3.44267 3.91473 -1.73923
-3.73866 4.28327 -1.73638
-4.12994 4.77213 -1.75201
-4.58417 5.33781 -1.76078
-5.1116 5.99697 -1.76246
-5.72699 6.76649 -1.75177
-6.60753 7.79093 -1.75392
-7.68247 9.1191 -1.74578
-8.54165 10.1858 -1.61641
-9.95894 11.943 -1.50967
-12.3298 14.8754 -1.40528
-15.5745 18.8966 -1.1921
-15.6563 19.011 -0.615679
-23.838 29.1405 -0.0431257
-14.02 17.0048 0.481388
-13.9314 16.907 0.997679
-0.00318561 -0.349754 -0.0271186
-14.1391 17.1823 2.06441
-14.217 17.2912 2.6125
-13.5867 16.5144 3.00691
-0.00318561 -0.349754 -0.0271186
-12.5986 15.3093 3.75041
-0.345283 0.0772688 -0.351742
-0.334519 0.0641589 -0.325137
-0.345307 0.0778349 -0.318389
-0.367207 0.105442 -0.319883
-0.38245 0.124805 -0.314851
-0.400185 0.147118 -0.310446
-0.405164 0.153695 -0.296386
-0.420419 0.173145 -0.288538
-2.93605 3.32508 -1.74053
-3.16433 3.6139 -1.74248
-3.41324 3.92892 -1.7368
-3.70596 4.29764 -1.73356
-4.09558 4.79023 -1.74992
-4.54167 5.35229 -1.75703
-5.07131 6.02211 -1.76115
-5.68468 6.79822 -1.75134
-6.55061 7.8169 -1.75126
-7.61539 9.14809 -1.74292
-8.50074 10.2601 -1.62005
-9.87798 11.9881 -1.5081
-12.2281 14.9294 -1.40364
-15.3573 18.8537 -1.184
-15.5383 19.0934 -0.615322
-16.1861 19.9109 -0.0379434
-13.8923 17.0513 0.480495
-13.7856 16.9295 0.994369
-0.00316286 -0.34945 -0.0270945
-13.8195 16.9898 2.03198
-14.3861 17.7134 2.6633
-13.0218 16.0055 2.90184
-13.1548 16.184 3.43476
-12.3797 15.2204 3.71171
-0.357744 0.0984524 -0.366005
-0.326738 0.0596517 -0.3202
-0.348307 0.086985 -0.323065
-0.365665 0.10925 -0.320754
-0.383115 0.131672 -0.317384
-0.401709 0.155516 -0.313675
-0.401084 0.154946 -0.295581
-0.416236 0.174466 -0.287776
-2.90951 3.33695 -1.73774
-3.13801 3.62802 -1.74051
-3.38502 3.9444 -1.73496
-3.67712 4.3184 -1.73296
-4.0587 4.80493 -1.74682
-4.50774 5.37955 -1.75697
-5.02972 6.0478 -1.75984
-5.63487 6.82286 -1.74905
-6.49241 7.84093 -1.74826
-7.53923 9.16869 -1.73837
-8.4543 10.3279 -1.62277
-9.80423 12.042 -1.50764
-12.1186 14.9786 -1.40143
-15.1585 18.8309 -1.1772
-16.2129 20.1794 -0.645208
-16.0568 19.9959 -0.0378185
-13.912 17.2837 0.485027
-13.6067 16.9086 0.988571
-12.5085 15.5264 1.37769
-13.7212 17.0781 2.03283
-0.00320585 -0.349044 -0.0270632
-12.8682 16.0112 2.88918
-12.7649 15.8912 3.35757
-12.6177 15.7091 3.81158
-0.342337 0.0846686 -0.353723
-0.330732 0.0701352 -0.326054
-0.344655 0.0880955 -0.322087
-0.359615 0.107563 -0.318027
-0.380305 0.134197 -0.317355
-0.394321 0.152469 -0.310383
-0.396952 0.156231 -0.294777
-0.412103 0.175754 -0.287016
-2.88943 3.35554 -1.73838
-3.108 3.6374 -1.73661
-3.35905 3.9626 -1.73432
-3.65016 4.33989 -1.73291
-4.02775 4.82705 -1.74626
-4.4711 5.40119 -1.75553
-4.98794 6.06847 -1.7577
-5.58991 6.84837 -1.74751
-6.43029 7.86261 -1.74462
-7.4696 9.19361 -1.73495
-8.41397 10.408 -1.62712
-9.7269 12.0958 -1.50698
-12.0142 15.0281 -1.3995
-14.9522 18.8028 -1.17003
-15.0919 18.9882 -0.606575
-23.0232 29.173 -0.0424308
-13.4175 16.8664 0.470689
-13.4677 16.9366 0.98572
-12.9095 16.2315 1.43355
-13.7569 17.3261 2.05309
-13.7393 17.3157 2.58042
-0.00313168 -0.348708 -0.0270359
-12.7431 16.0515 3.37611
-12.2887 15.4776 3.73926
-0.344103 0.0923878 -0.357774
-0.326211 0.0695539 -0.324063
-0.341143 0.0889715 -0.321117
-0.359239 0.11272 -0.319794
-0.380853 0.140994 -0.319895
-0.394782 0.159458 -0.312792
-0.398647 0.164652 -0.297831
-0.411348 0.18142 -0.288441
-2.86802 3.37244 -1.73833
-3.08848 3.66006 -1.73849
-3.32951 3.97628 -1.73188
-3.61602 4.35195 -1.72955
-3.99553 4.84748 -1.7452
-4.43193 5.41944 -1.75316
-4.94265 6.08903 -1.75514
-5.53754 6.86937 -1.74447
-6.37108 7.88157 -1.74098
-7.40609 9.22589 -1.73292
-8.37445 10.4819 -1.63099
-9.64626 12.136 -1.50523
-11.9193 15.0895 -1.3987
-14.7559 18.771 -1.16306
-14.9802 19.0751 -0.60646
-17.8783 22.8498 -0.0389397
-22.6931 29.1083 0.821096
-13.4093 17.068 0.988967
-12.3588 15.7145 1.38178
-12.4478 15.8415 1.86971
-14.2837 18.2361 2.70415
-12.5703 16.0178 2.86442
-0.00317468 -0.348302 -0.0270046
-12.5814 16.0491 3.85797
-0.344668 0.0989176 -0.360803
-0.319528 0.0662992 -0.320111
-0.336363 0.0885612 -0.319204
-0.353292 0.110967 -0.317066
-0.374633 0.13928 -0.317295
-0.385187 0.153355 -0.307875
-0.389945 0.159938 -0.293948
-0.398033 0.170905 -0.281852
-2.84198 3.38328 -1.73555
-3.05658 3.66813 -1.73396
-3.3003 3.99167 -1.73004
-3.58653 4.37004 -1.7284
-3.95995 4.86534 -1.74311
-4.39041 5.43435 -1.74988
-4.89714 6.10681 -1.75217
-5.49349 6.89842 -1.74366
-6.30653 7.89925 -1.73668
-7.33035 9.24199 -1.7281
-8.33652 10.5666 -1.63603
-9.56236 12.1808 -1.50364
-11.8229 15.1487 -1.39776
-14.5416 18.7266 -1.15514
-14.5811 18.7919 -0.595288
-17.828 23.0626 -0.03886
-22.4295 29.1267 0.817934
-12.4363 16.0042 0.922671
-12.6488 16.2893 1.42585
-12.4037 15.9783 1.8774
-13.1919 17.0281 2.51513
-12.2184 15.751 2.80485
-12.356 15.9437 3.3236
-0.00321767 -0.347896 -0.0269733
-0.341054 0.0998534 -0.359753
-0.321362 0.0741088 -0.323997
-0.339158 0.0978428 -0.323875
-0.357129 0.121952 -0.322421
-0.37727 0.149069 -0.321541
-0.383389 0.157322 -0.308663
-0.392615 0.169966 -0.29777
-0.401733 0.182487 -0.286189
-2.82271 3.40298 -1.73687
-3.03228 3.68452 -1.73327
-3.27752 4.01404 -1.73119
-3.55702 4.388 -1.72723
-3.92752 4.88532 -1.74204
-4.35473 5.45686 -1.74889
-4.85644 6.13062 -1.75085
-5.44929 6.92713 -1.74286
-6.25529 7.931 -1.73565
-7.26664 9.27339 -1.72607
-8.30098 10.6511 -1.64131
-9.47921 12.2217 -1.50187
-11.7394 15.2249 -1.39836
-14.3487 18.7004 -1.14854
-14.4526 18.8519 -0.594465
-22.2475 29.2192 -0.0417635
-22.1741 29.1423 0.814861
-13.2395 17.2707 0.991869
-0.0031435 -0.34756 -0.0269459
-12.3692 16.1295 1.88675
-0.0031435 -0.34756 -0.0269459
-12.2799 16.0274 2.84103
-12.2963 16.0608 3.33308
-12.0353 15.7237 3.74733
-0.335383 0.0980433 -0.356658
-0.319959 0.0776881 -0.324948
-0.335543 0.0987844 -0.3229
-0.350106 0.118648 -0.318795
-0.365757 0.139991 -0.314658
-0.383798 0.164343 -0.311069
-0.387391 0.169574 -0.296198
-0.396456 0.182134 -0.284703
-2.79657 3.41343 -1.73409
-3.00446 3.69621 -1.73066
-3.24559 4.02409 -1.72755
-3.52624 4.40412 -1.72553
-3.89849 4.90976 -1.7425
-4.31772 5.47757 -1.74745
-4.8167 6.15574 -1.74996
-5.4038 6.95401 -1.74168
-6.19694 7.95308 -1.73265
-7.19686 9.29637 -1.72265
-8.26125 10.7311 -1.64588
-9.38876 12.2525 -1.49899
-11.6364 15.2751 -1.39672
-13.1247 17.2862 -1.06066
-14.5506 19.216 -0.602611
-21.9909 29.2317 -0.041539
-21.9144 29.1495 0.8116
-12.4471 16.4166 0.938401
-12.5906 16.6157 1.44174
-12.4473 16.4344 1.91386
-13.0026 17.1956 2.51766
-0.00318649 -0.347154 -0.0269146
-11.8527 15.6605 3.23712
-12.3166 16.2988 3.86568
-0.333825 0.101724 -0.357646
-0.316433 0.078425 -0.32394
-0.330851 0.0981724 -0.320993
-0.34951 0.123801 -0.320566
-0.367265 0.148266 -0.318053
-0.386231 0.174248 -0.315109
-0.383296 0.170689 -0.295393
-0.3901 0.180244 -0.282488
-2.77491 3.42993 -1.73404
-2.9845 3.71843 -1.73253
-3.21921 4.04153 -1.72691
-3.49657 4.4216 -1.72438
-3.85668 4.91688 -1.73737
-4.28405 5.50263 -1.7474
-4.77218 6.17421 -1.74741
-5.35584 6.9775 -1.73976
-6.14198 7.97945 -1.73064
-7.13999 9.33642 -1.7223
-8.22675 10.8188 -1.65162
-9.30896 12.2971 -1.49778
-11.5332 15.3246 -1.39507
-12.9424 17.2524 -1.05416
-14.4932 19.3756 -0.604709
-21.7325 29.2389 -0.041318
-21.6601 29.1612 0.808526
-21.0206 28.3101 1.61641
-12.2886 16.4099 1.41784
-12.5294 16.7503 1.94209
-0.00311232 -0.346818 -0.0268873
-12.6226 16.8958 2.96753
-12.5689 16.8345 3.46171
-12.0186 16.0937 3.80149
-0.329202 0.101203 -0.355574
-0.314035 0.0806856 -0.323902
-0.326211 0.0975274 -0.319086
-0.345791 0.124812 -0.31963
-0.361186 0.146317 -0.315454
-0.378815 0.170929 -0.311824
-0.380383 0.17328 -0.295359
-0.387019 0.182797 -0.282459
-2.75131 3.44514 -1.73331
-2.95546 3.72825 -1.72928
-3.19161 4.05724 -1.72567
-3.45918 4.43014 -1.71991
-3.82517 4.93777 -1.73682
-4.23786 5.51258 -1.74272
-4.72428 6.19015 -1.74401
-5.30771 7.00315 -1.73822
-6.08922 8.00866 -1.72927
-7.06724 9.35823 -1.71859
-8.19034 10.905 -1.65712
-9.2196 12.3284 -1.49509
-11.4271 15.3754 -1.39343
-12.923 17.4401 -1.06063
-20.097 27.3361 -0.834363
-21.4731 29.2528 -0.041095
-21.4075 29.1725 0.805493
-11.8992 16.0711 0.910716
-11.8239 15.9787 1.37467
-11.7902 15.9438 1.84118
-12.7624 17.2934 2.51047
-21.1861 28.9601 5.04086
-13.3126 18.0803 3.6986
-12.0572 16.3479 3.84446
-0.331552 0.110507 -0.360645
-0.308386 0.0785802 -0.320935
-0.325614 0.102686 -0.320933
-0.342967 0.127201 -0.319599
-0.359336 0.150319 -0.316276
-0.374773 0.172009 -0.310975
-0.378328 0.177407 -0.296097
-0.401289 0.209754 -0.294073
-2.72508 3.45522 -1.73052
-2.9334 3.74915 -1.73051
-3.1621 4.07181 -1.72383
-3.43381 4.45344 -1.72097
-3.7881 4.95292 -1.73422
-4.20632 5.54041 -1.74359
-4.68881 6.22077 -1.74479
-5.26066 7.02753 -1.73667
-6.02916 8.03067 -1.72627
-7.00427 9.38946 -1.71685
-8.14654 10.9859 -1.6617
-9.13952 12.3767 -1.49425
-11.3794 15.5013 -1.39852
-12.9255 17.6679 -1.06925
-19.8531 27.3447 -0.830997
-21.209 29.2464 -0.040865
-21.1575 29.1954 0.80274
-20.4712 28.2574 1.59982
-11.5984 15.8636 1.35909
-11.7449 16.08 1.84906
-12.4138 17.0281 2.46173
-12.6008 17.296 3.01133
-11.9877 16.4492 3.35485
-0.00319831 -0.346006 -0.0268247
-0.323913 0.105749 -0.35551
-0.306983 0.0821592 -0.321882
-0.322995 0.104943 -0.320899
-0.339234 0.128076 -0.318669
-0.354371 0.149748 -0.314534
-0.371691 0.174562 -0.310945
-0.376362 0.181334 -0.296845
-0.418458 0.24125 -0.30788
-2.70566 3.47624 -1.73253
-2.90437 3.75866 -1.72725
-3.1355 4.08881 -1.72318
-3.40306 4.47104 -1.7198
-3.75529 4.97184 -1.73316
-4.15783 5.54655 -1.73799
-4.64074 6.23609 -1.74139
-5.21116 7.05099 -1.73475
-5.96943 8.04954 -1.72295
-6.93723 9.41832 -1.71454
-8.10072 11.0606 -1.66558
-9.06032 12.4215 -1.49323
-11.2852 15.5689 -1.39841
-12.9312 17.8972 -1.07807
-19.5962 27.3219 -0.826876
-21.122 29.4978 -0.0407575
-21.1151 29.4983 0.807968
-12.8596 17.8412 1.00333
-0.00312413 -0.34567 -0.0267974
-11.8171 16.3905 1.87655
-12.2677 17.0348 2.45258
-12.5016 17.3789 3.01283
-13.5953 18.9437 3.84084
-12.2131 16.9882 3.9596
-0.318279 0.10377 -0.352418
-0.309453 0.0915177 -0.326748
-0.322398 0.110102 -0.322747
-0.338432 0.13336 -0.320434
-0.356685 0.159599 -0.31878
-0.368661 0.177083 -0.310911
-0.374307 0.185461 -0.297582
-0.438556 0.277557 -0.323871
-2.68036 3.48751 -1.73043
-2.87954 3.7741 -1.72657
-3.10444 4.09936 -1.72014
-3.37196 4.4862 -1.7181
-3.72126 4.98903 -1.73158
-4.1183 5.56286 -1.73562
-4.6028 6.26066 -1.74092
-5.16417 7.07225 -1.73283
-5.91607 8.08033 -1.72191
-6.87407 9.4488 -1.71279
-8.03176 11.1072 -1.66526
-8.97755 12.4656 -1.49203
-11.1967 15.6389 -1.39874
-12.9522 18.159 -1.08857
-19.3311 27.284 -0.822382
-20.9738 29.6538 -0.0406097
-21.1643 29.948 0.817179
-12.7134 17.8564 1.00011
-11.5462 16.1968 1.37609
-11.6471 16.3471 1.86425
-11.93 16.7649 2.40429
-0.00316713 -0.345264 -0.0267661
-0.00316713 -0.345264 -0.0267661
-12.478 17.583 4.07982
-0.311856 0.100338 -0.348296
-0.306974 0.0935398 -0.326721
-0.321852 0.115227 -0.324589
-0.332714 0.13117 -0.31771
-0.35172 0.159028 -0.317036
-0.372979 0.190105 -0.316576
-0.371329 0.187949 -0.297546
-0.446608 0.297352 -0.331844
-2.65613 3.50018 -1.72901
-2.85361 3.78786 -1.72524
-3.07985 4.11907 -1.72069
-3.34078 4.50113 -1.71639
-3.68389 5.00115 -1.72848
-4.08418 5.58675 -1.73557
-4.55793 6.28012 -1.73878
-5.11449 7.09509 -1.73091
-5.86103 8.10222 -1.71957
-6.80054 9.46411 -1.70854
-7.95745 11.1376 -1.66309
-8.89791 12.5044 -1.49063
-11.0931 15.6871 -1.39723
-12.985 18.4286 -1.09973
-19.0875 27.2736 -0.818735
-21.1847 30.3306 -0.0407048
-21.2037 30.3689 0.825744
-11.7575 16.6963 0.930909
-0.00314437 -0.344961 -0.026742
-0.00314437 -0.344961 -0.026742
-11.9269 16.9727 2.42408
-12.5413 17.8782 3.07357
-12.8097 18.2817 3.67835
-0.00314437 -0.344961 -0.026742
-0.314089 0.109572 -0.353374
-0.305351 0.097115 -0.327673
-0.316084 0.113061 -0.321743
-0.334894 0.140831 -0.322171
-0.348675 0.161413 -0.317007
-0.367792 0.189537 -0.31492
-0.373353 0.198101 -0.301374
-2.46157 3.2616 -1.73281
-2.62965 3.50954 -1.72623
-2.83014 3.80671 -1.72583
-3.05221 4.13601 -1.72005
-3.31393 4.52229 -1.71689
-3.64883 5.01842 -1.72691
-4.03684 5.59128 -1.72997
-4.51307 6.29692 -1.73622
-5.07043 7.12315 -1.73048
-5.80634 8.13078 -1.7182
-6.73833 9.4953 -1.70707
-7.8746 11.1637 -1.65998
-8.82257 12.559 -1.49073
-11.0005 15.7511 -1.39713
-12.9972 18.6871 -1.10994
-13.6788 19.6999 -0.599082
-21.1958 30.7285 -0.0406558
-21.2181 30.7837 0.83391
-12.5109 18.0211 1.00126
-11.9724 17.2365 1.45262
-0.00313595 -0.344522 -0.0267075
-11.7513 16.9368 2.40914
-12.3159 17.7736 3.0437
-12.2985 17.7612 3.56071
-0.00313595 -0.344522 -0.0267075
-0.310512 0.110339 -0.352319
-0.303729 0.10069 -0.32862
-0.312441 0.113731 -0.320774
-0.332121 0.143187 -0.322134
-0.347874 0.166691 -0.31869
-0.362658 0.188936 -0.313262
-0.378444 0.212839 -0.307514
-2.44033 3.27414 -1.73203
-2.61167 3.53128 -1.72892
-2.80369 3.81801 -1.72386
-3.02289 4.14708 -1.71761
-3.2869 4.54327 -1.71739
-3.61561 5.03437 -1.72533
-3.99607 5.60516 -1.72714
-4.47265 6.31751 -1.73491
-5.01656 7.13371 -1.72634
-5.74744 8.14973 -1.71521
-6.66274 9.50652 -1.70224
-7.78586 11.1762 -1.65525
-8.74703 12.6084 -1.49045
-10.8976 15.7997 -1.39576
-13.3163 19.3981 -1.14589
-13.428 19.5708 -0.593119
-21.2176 31.149 -0.0406239
-20.1374 29.5673 0.797213
-11.8348 17.239 0.953858
-11.6961 17.0456 1.43094
-11.3035 16.4676 1.85569
-11.6934 17.0602 2.41735
-12.4717 18.2326 3.10933
-12.4875 18.2627 3.64623
-11.4372 16.7096 3.834
-0.30507 0.108092 -0.349229
-0.298388 0.0983861 -0.325648
-0.311844 0.11889 -0.322618
-0.326389 0.140861 -0.319414
-0.339963 0.161584 -0.314372
-0.362627 0.19595 -0.315672
-0.383433 0.227644 -0.313656
-2.41533 3.28226 -1.72908
-2.58619 3.54193 -1.72682
-2.77683 3.83179 -1.72253
-2.99407 4.16212 -1.71637
-3.2555 4.55762 -1.71569
-3.58149 5.05282 -1.72426
-3.95527 5.62097 -1.72478
-4.42324 6.33209 -1.73151
-4.97428 7.16695 -1.72702
-5.69772 8.17878 -1.71449
-6.59813 9.53355 -1.70022
-7.7049 11.1952 -1.65167
-8.66789 12.6474 -1.48925
-10.7768 15.8211 -1.39216
-14.21 20.988 -1.23121
-0.00315619 -0.343813 -0.026652
-19.9701 29.6692 -0.0397514
-21.271 31.6479 0.851297
-11.6893 17.2478 0.950552
-11.7503 17.3457 1.45048
-11.176 16.4933 1.85117
-12.0971 17.8946 2.52445
-13.219 19.6011 3.3271
-11.7524 17.394 3.46096
-12.1668 18.0331 4.11722
-0.304185 0.113156 -0.35124
-0.294694 0.0990857 -0.324637
-0.306179 0.116657 -0.319768
-0.327352 0.149206 -0.322972
-0.336918 0.163969 -0.314339
-0.357389 0.195414 -0.31401
-0.40233 0.264205 -0.330596
-2.39375 3.29695 -1.72903
-2.55787 3.54968 -1.72335
-2.75485 3.85133 -1.72376
-2.97122 4.18444 -1.71811
-3.22418 4.57398 -1.71453
-3.54713 5.06892 -1.72269
-3.91548 5.63585 -1.72241
-4.38588 6.35704 -1.73146
-4.9245 7.18606 -1.72473
-5.64011 8.20556 -1.7128
-6.522 9.54644 -1.69568
-7.61677 11.2158 -1.64787
-8.57957 12.6872 -1.48767
-10.6795 15.8834 -1.39191
-14.0228 20.9805 -1.22592
-13.1689 19.6888 -0.591793
-20.312 30.58 -0.039923
-19.9002 29.9753 0.802294
-11.59 17.3186 0.950845
-11.3683 16.9933 1.41547
-11.2677 16.8459 1.88329
-11.9863 17.956 2.5234
-12.1018 18.1459 3.07068
-12.0908 18.1356 3.59307
-11.8113 17.7216 4.03159
-0.306315 0.122456 -0.356309
-0.299871 0.112868 -0.332441
-0.302572 0.117158 -0.318802
-0.33236 0.163342 -0.330126
-0.354653 0.198006 -0.332296
-0.368321 0.219264 -0.325372
-0.00312501 -0.343071 -0.0265934
-2.3626 3.29535 -1.7217
-2.54121 3.57221 -1.72672
-2.72856 3.86431 -1.72243
-2.93883 4.19216 -1.71449
-3.19149 4.58427 -1.71172
-3.51377 5.0863 -1.72162
-3.87785 5.65155 -1.7205
-4.3461 6.3809 -1.73098
-4.87467 7.20476 -1.72244
-5.58901 8.23228 -1.71176
-6.45684 9.56811 -1.6931
-7.5434 11.2453 -1.64593
-8.50012 12.7252 -1.48647
-10.5886 15.9432 -1.39181
-13.8589 20.9902 -1.22195
-17.9537 27.3153 -0.803869
-20.5025 31.2537 -0.0400001
-0.00312501 -0.343071 -0.0265934
-0.00312501 -0.343071 -0.0265934
-0.00312501 -0.343071 -0.0265934
-0.00312501 -0.343071 -0.0265934
-11.4773 17.4012 2.4369
-11.7381 17.811 3.0036
-0.00312501 -0.343071 -0.0265934
-0.00312501 -0.343071 -0.0265934
-0.303683 0.124576 -0.356278
-0.297173 0.114886 -0.332414
-0.31998 0.150509 -0.338497
-0.347799 0.194139 -0.34716
-0.38475 0.252199 -0.361373
-0.375864 0.238579 -0.3343
-0.003168 -0.342665 -0.0265621
-2.34463 3.31398 -1.72384
-2.51558 3.58239 -1.72462
-2.70122 3.87545 -1.72047
-2.91165 4.20779 -1.71384
-3.16613 4.60775 -1.71333
-3.47938 5.10199 -1.72004
-3.838 5.66589 -1.71814
-4.30203 6.39796 -1.72884
-4.82898 7.22977 -1.72163
-5.5299 8.24976 -1.70877
-6.38896 9.5889 -1.69023
-7.46259 11.2672 -1.64282
-8.41714 12.7626 -1.48507
-10.4893 15.9959 -1.39101
-13.6786 20.9809 -1.21685
-17.7347 27.3261 -0.801125
-21.7702 33.6351 -0.0407723
-18.9706 29.2871 0.777839
-18.9303 29.2459 1.59904
-18.87 29.1622 2.40999
-11.3927 17.4821 1.9394
-12.1349 18.6578 2.60167
-11.5438 17.7384 2.98039
-11.5682 17.7901 3.49914
-10.9358 16.8112 3.79858
-0.297179 0.120905 -0.352164
-0.298206 0.122918 -0.336301
-0.325503 0.166147 -0.346923
-0.354174 0.211735 -0.356102
-0.396678 0.279202 -0.375046
-0.469166 0.393974 -0.414866
-2.16512 3.0761 -1.71764
-2.32186 3.32663 -1.72307
-2.49327 3.59919 -1.72526
-2.67614 3.89181 -1.72041
-2.88461 4.2254 -1.71379
-3.13263 4.62035 -1.71106
-3.44073 5.11303 -1.71695
-3.80121 5.68725 -1.71763
-4.2557 6.41382 -1.72628
-4.77451 7.24368 -1.71823
-5.47878 8.28281 -1.7087
-6.30975 9.59528 -1.68485
-7.38609 11.2999 -1.64111
-8.33075 12.7993 -1.48349
-10.3922 16.0583 -1.3909
-13.5197 21.0115 -1.2139
-17.52 27.3518 -0.798752
-18.8083 29.3993 -0.0387892
-18.7357 29.3066 0.775496
-18.6957 29.2652 1.59412
-11.0925 17.2287 1.41912
-11.7775 18.328 2.02503
-11.6884 18.2005 2.52884
-18.5158 29.0451 4.84248
-0.00315958 -0.342226 -0.0265277
-11.2775 17.5815 3.9554
-0.297239 0.127323 -0.355196
-0.295508 0.124936 -0.336274
-0.320746 0.165431 -0.345009
-0.353854 0.218661 -0.358765
-0.398857 0.291087 -0.380147
-0.538487 0.514778 -0.476704
-0.00313682 -0.341923 -0.0265035
-2.3056 3.3482 -1.72666
-2.4675 3.60903 -1.72316
-2.64774 3.90112 -1.7178
-2.8562 4.23903 -1.71255
-3.10194 4.63543 -1.70991
-3.40825 5.13148 -1.71639
-3.76641 5.7094 -1.71757
-4.21052 6.42865 -1.72372
-4.72453 7.26146 -1.71594
-5.42384 8.30628 -1.707
-6.24716 9.62338 -1.68339
-7.29467 11.3039 -1.63568
-8.2433 12.8289 -1.48135
-10.2911 16.108 -1.38996
-13.353 21.0199 -1.20993
-17.3347 27.4119 -0.797469
-18.572 29.404 -0.0385857
-18.5053 29.3194 0.773093
-18.4604 29.2694 1.58865
-18.4265 29.2257 2.39754
-0.00313682 -0.341923 -0.0265035
-11.5425 18.2054 2.52037
-18.2782 29.0424 4.82459
-11.4741 18.1159 3.53625
-0.00313682 -0.341923 -0.0265035
-0.296354 0.132387 -0.3572
-0.293716 0.128474 -0.337222
-0.319657 0.170615 -0.346858
-0.35059 0.221041 -0.358733
-0.406555 0.312139 -0.390394
-0.534396 0.519922 -0.477481
-0.00317982 -0.341517 -0.0264722
-2.27941 3.35383 -1.72298
-2.44403 3.62406 -1.72311
-2.62323 3.91667 -1.71775
-2.82477 4.24763 -1.70951
-3.06933 4.64924 -1.7082
-3.36655 5.1349 -1.71126
-3.72338 5.72048 -1.71428
-4.16517 6.44551 -1.72158
-4.68235 7.29466 -1.71699
-5.36973 8.33098 -1.70564
-6.17533 9.64041 -1.67996
-7.22427 11.341 -1.6349
-8.15572 12.8578 -1.47921
-10.2028 16.1845 -1.39112
-13.2109 21.0662 -1.20812
-17.1367 27.4504 -0.795624
-18.3375 29.4204 -0.0383844
-18.2765 29.3322 0.77074
-18.235 29.2871 1.584
-18.189 29.2347 2.38952
-11.4791 18.3362 2.01118
-11.5946 18.5309 2.55592
-18.0516 29.0662 4.81087
-18.0092 29.0192 5.62016
-11.1092 17.7746 3.96967
-0.294393 0.135891 -0.358195
-0.292781 0.133564 -0.33915
-0.315691 0.171346 -0.345887
-0.347222 0.223487 -0.3587
-0.399984 0.310214 -0.387792
-0.534112 0.531133 -0.481519
-2.11278 3.12706 -1.72368
-2.25815 3.36731 -1.72293
-2.42018 3.63683 -1.72238
-2.59963 3.93372 -1.71834
-2.79632 4.26098 -1.70827
-3.03651 4.66052 -1.70594
-3.33594 5.15629 -1.71171
-3.68633 5.73878 -1.7133
-4.12618 6.46741 -1.7211
-4.63354 7.31097 -1.71471
-5.31201 8.35301 -1.70362
-6.09919 9.64572 -1.67487
-7.14348 11.3654 -1.63226
-8.06793 12.891 -1.47745
-10.1156 16.2569 -1.39214
-13.0119 21.0268 -1.20152
-16.9348 27.4807 -0.793586
-18.1075 29.4302 -0.0381863
-18.0398 29.3414 0.768247
-18.0132 29.3084 1.57963
-17.9614 29.2456 2.38204
-17.9217 29.191 3.18454
-11.499 18.6199 2.55905
-17.8285 29.082 4.79659
-17.7886 29.0268 5.60252
-10.963 17.7698 3.95463
-0.289106 0.133545 -0.355095
-0.288268 0.132542 -0.337159
-0.310115 0.168912 -0.343038
-0.344112 0.225769 -0.358669
-0.398997 0.317558 -0.390324
-0.538519 0.550223 -0.489626
-2.09816 3.14715 -1.72748
-2.23865 3.38382 -1.72434
-2.3962 3.64939 -1.72165
-2.57493 3.94897 -1.7183
-2.76577 4.2708 -1.70583
-3.00763 4.67831 -1.70589
-3.30119 5.17075 -1.71014
-3.64922 5.75697 -1.71232
-4.07868 6.48036 -1.71813
-4.58603 7.3354 -1.71389
-5.25928 8.37611 -1.70225
-6.03542 9.67092 -1.67312
